# .PCD v0.7 - Point Cloud Data file format
VERSION 0.7
FIELDS x y z
SIZE 4 4 4
TYPE F F F
COUNT 1 1 1
WIDTH 1385
HEIGHT 1
VIEWPOINT 0 0 0 1 0 0 0
POINTS 1385
DATA ascii
-0.13800015 -0.14631794 0.90460318
-0.13851662 -0.14437816 0.90798867
-0.13793167 -0.14129157 0.90415436
-0.13820265 -0.13908738 0.90593064
-0.13788037 -0.13628706 0.90381801
-0.13815649 -0.13407907 0.90562803
-0.13758007 -0.13104905 0.90184951
-0.13760214 -0.12859909 0.90199417
-0.13725172 -0.12580693 0.89969712
-0.13774334 -0.12378404 0.90291971
-0.13716404 -0.12080034 0.89912242
-0.13712655 -0.11830489 0.89887667
-0.13678887 -0.11555718 0.89666319
-0.13704753 -0.11331467 0.8983587
-0.13687782 -0.11071638 0.89724624
-0.13689795 -0.10827433 0.89737821
-0.13680534 -0.10574441 0.89677113
-0.13673674 -0.10323594 0.89632136
-0.13681221 -0.10083614 0.89681613
-0.13663179 -0.098249592 0.8956334
-0.13639323 -0.095628791 0.89406973
-0.13612945 -0.092999309 0.8923406
-0.13590135 -0.090403035 0.8908453
-0.13599011 -0.088020049 0.89142716
-0.13577953 -0.085445501 0.89004678
-0.13604626 -0.083170317 0.89179528
-0.13572501 -0.080536656 0.88968939
-0.13614787 -0.078342706 0.8924613
-0.13551243 -0.075543605 0.88829589
-0.13538389 -0.073040813 0.88745338
-0.13403939 -0.069908433 0.87864006
-0.13405858 -0.067511097 0.87876582
-0.13356625 -0.064864658 0.87553853
-0.13357875 -0.062472001 0.87562048
-0.13311613 -0.059865218 0.87258792
-0.13311395 -0.057473861 0.87257373
-0.13279888 -0.054953102 0.87050843
-0.13263634 -0.052504033 0.86944288
-0.13253689 -0.050084647 0.86879104
-0.13305889 -0.047892515 0.87221283
-0.13337092 -0.045609824 0.87425816
-0.13355179 -0.043273438 0.87544382
-0.13303038 -0.040715605 0.87202591
-0.1332036 -0.038376629 0.87316138
-0.13267276 -0.03584123 0.8696816
-0.13267376 -0.033459023 0.86968815
-0.13214567 -0.03095285 0.86622655
-0.13242885 -0.028641101 0.86808288
-0.13249989 -0.026277108 0.86854845
-0.13283327 -0.023957882 0.8707338
-0.13240822 -0.02150351 0.86794758
-0.13250843 -0.019140275 0.86860442
-0.13220751 -0.016722705 0.86663193
-0.1326232 -0.014393714 0.86935681
-0.13211998 -0.011966567 0.86605817
-0.1322552 -0.0096038524 0.86694449
-0.13167892 -0.0071973922 0.86316699
-0.13212122 -0.004849012 0.86606628
-0.13183357 -0.0024710645 0.86418068
-0.13228841 -0.00010403215 0.86716223
-0.1318813 0.0022645353 0.86449355
-0.1324439 0.0046525458 0.86818147
-0.13215889 0.0070157652 0.86631316
-0.13260542 0.0094207209 0.86924022
-0.13229726 0.011774546 0.86722028
-0.13222952 0.014143016 0.86677617
-0.13170905 0.016452502 0.86336452
-0.13135584 0.018767191 0.86104912
-0.13159016 0.021163687 0.86258507
-0.13065404 0.023359342 0.85644877
-0.13007726 0.02559207 0.85266787
-0.1293623 0.027774421 0.84798133
-0.12949117 0.03012741 0.84882599
-0.1293007 0.032405004 0.84757751
-0.12886919 0.03461102 0.84474897
-0.12856904 0.036839176 0.84278142
-0.12869976 0.039187748 0.84363836
-0.12876162 0.041518807 0.84404379
-0.12890925 0.043881286 0.84501147
-0.12856482 0.046072733 0.84275377
-0.12859245 0.048391819 0.84293485
-0.12812518 0.050516777 0.83987188
-0.12822588 0.052859087 0.840532
-0.12727588 0.054753009 0.83430463
-0.12688363 0.056862764 0.83173335
-0.12640513 0.058918238 0.82859683
-0.12634102 0.061157119 0.82817656
-0.12602046 0.063264944 0.82607526
-0.12587048 0.065449953 0.82509208
-0.12562418 0.067577779 0.82347763
-0.12574096 0.069898576 0.82424307
-0.12550634 0.072021924 0.82270515
-0.12559484 0.074328065 0.82328522
-0.12500186 0.076221853 0.81939828
-0.12483983 0.078364849 0.81833613
-0.12472901 0.080535091 0.81760967
-0.12491277 0.082896851 0.81881422
-0.12484419 0.08509323 0.81836474
-0.12488225 0.087361723 0.81861418
-0.12458794 0.089393117 0.81668496
-0.12469092 0.091706134 0.81735998
-0.12428882 0.093642309 0.81472421
-0.12471346 0.09620177 0.81750774
-0.12423775 0.098065808 0.81438941
-0.12441505 0.10043994 0.8155517
-0.12375866 0.10213241 0.81124896
-0.12402464 0.10457907 0.81299245
-0.12406235 0.10683873 0.81323969
-0.12432607 0.1092984 0.81496841
-0.12429343 0.11150169 0.81475443
-0.12431347 0.11375201 0.81488574
-0.1242194 0.11589659 0.81426913
-0.12408157 0.1179962 0.8133657
-0.12375017 0.11990327 0.81119329
-0.12398748 0.12235971 0.81274891
-0.12354609 0.12414268 0.80985558
-0.12365884 0.12647656 0.81059462
-0.12293606 0.12794493 0.80585676
-0.1232854 0.13052239 0.80814666
-0.12247375 0.1318624 0.80282623
-0.1220563 0.13360476 0.80008984
-0.12168589 0.13538449 0.79766178
-0.12168399 0.13756749 0.79764932
-0.12160853 0.13966595 0.79715466
-0.12152468 0.14175193 0.79660505
-0.1216005 0.144024 0.79710203
-0.12198863 0.14667431 0.79964626
-0.12237862 0.14934081 0.80220264
-0.12256669 0.15177129 0.80343544
-0.1223539 0.15370497 0.80204064
-0.12240724 0.1559701 0.80239028
-0.12205514 0.15771323 0.80008221
-0.12227567 0.16019395 0.8015278
-0.12199764 0.16202047 0.79970533
-0.12266545 0.16511011 0.80408287
-0.12233944 0.16686821 0.80194587
-0.1225338 0.16933368 0.80321985
-0.12214915 0.17099561 0.80069846
-0.12202609 0.17301463 0.79989183
-0.1211707 0.17397772 0.79428464
-0.12112859 0.17609242 0.79400861
-0.12100181 0.17808098 0.79317755
-0.12136804 0.18079942 0.79557818
-0.12045788 0.1816067 0.78961205
-0.12019515 0.18336898 0.78788984
-0.11943872 0.18435979 0.78293139
-0.11942197 0.18647845 0.78282154
-0.11950661 0.18875664 0.7833764
-0.11954453 0.19096324 0.78362495
-0.11971296 0.19338202 0.784729
-0.11941443 0.19504416 0.78277212
-0.1191789 0.19679961 0.78122818
-0.11902621 0.19868489 0.7802273
-0.11930291 0.20128913 0.78204107
-0.11895214 0.20283338 0.77974176
-0.11841695 0.20404725 0.77623355
-0.11798552 0.20542255 0.77340549
-0.11822736 0.20796669 0.7749908
-0.11829379 0.21020779 0.77542627
-0.11878438 0.21321262 0.77864212
-0.11861046 0.21503039 0.777502
-0.11898314 0.21784267 0.77994502
-0.11860409 0.21927848 0.77746028
-0.1186069 0.22141355 0.77747869
-0.11801987 0.22243702 0.77363068
-0.11822769 0.22495177 0.77499294
-0.11809092 0.22681215 0.77409643
-0.11836306 0.22946034 0.77588034
-0.11802358 0.23092161 0.773655
-0.11773591 0.23247299 0.77176929
-0.11726299 0.23364493 0.76866925
-0.1170944 0.23541176 0.76756418
-0.11725148 0.23783308 0.76859379
-0.11729646 0.24003066 0.76888865
-0.1170379 0.24160326 0.76719379
-0.11707068 0.24377321 0.76740867
-0.11705683 0.24584641 0.76731789
-0.11719779 0.24824703 0.76824188
-0.11687575 0.24966367 0.76613086
-0.11681738 0.25163671 0.76574826
-0.1166646 0.25340262 0.76474679
-0.11659154 0.25533757 0.7642678
-0.11632663 0.25684637 0.76253134
-0.11649706 0.25931466 0.76364851
-0.11632004 0.26100945 0.76248819
-0.11665086 0.26384649 0.76465666
-0.11638828 0.26534262 0.76293546
-0.11659624 0.26791048 0.76429862
-0.11614596 0.26896155 0.76134706
-0.11598804 0.27067867 0.76031184
-0.11562715 0.27191284 0.75794619
-0.11566591 0.27408105 0.75820023
-0.11557955 0.27595192 0.75763416
-0.13152483 -0.23098859 0.87792206
-0.13198477 -0.2293829 0.88099211
-0.13190123 -0.22682583 0.88043457
-0.13242897 -0.22531179 0.88395715
-0.13263944 -0.22324446 0.88536203
-0.13320453 -0.2217598 0.88913399
-0.13334306 -0.21955214 0.8900587
-0.133863 -0.21796045 0.89352924
-0.13370782 -0.21526285 0.89249349
-0.13387817 -0.21308902 0.89363056
-0.13383976 -0.21058051 0.89337415
-0.13348101 -0.20757526 0.89097947
-0.13404481 -0.20600091 0.89474285
-0.13374406 -0.2030931 0.8927353
-0.13428356 -0.20145687 0.8963365
-0.13407268 -0.19868886 0.89492887
-0.13464327 -0.19707239 0.89873749
-0.13433737 -0.1941682 0.89669561
-0.13454744 -0.19201154 0.89809787
-0.13454428 -0.18954678 0.89807677
-0.13512525 -0.18789437 0.90195471
-0.13491771 -0.1851387 0.90056938
-0.13520749 -0.18306397 0.90250361
-0.1350982 -0.18044563 0.90177417
-0.13558586 -0.1786177 0.9050293
-0.13531996 -0.17579296 0.90325439
-0.13563228 -0.17371854 0.90533906
-0.13567673 -0.17129453 0.90563577
-0.13625361 -0.16953135 0.90948641
-0.1359548 -0.16667353 0.90749192
-0.13603197 -0.16428068 0.90800703
-0.13575561 -0.16146454 0.90616238
-0.13600689 -0.1592764 0.9078396
-0.13564412 -0.15637121 0.90541816
-0.13600609 -0.15430151 0.90783429
-0.13574921 -0.15152779 0.90611959
-0.13624293 -0.1495876 0.90941519
-0.13571456 -0.14652582 0.90588832
-0.13603392 -0.14438315 0.90802008
-0.13547955 -0.1413174 0.9043197
-0.13581336 -0.13918214 0.90654778
-0.13557933 -0.13646314 0.90498567
-0.1359293 -0.13432983 0.90732175
-0.13552323 -0.13145036 0.90461117
-0.13550937 -0.12895902 0.90451866
-0.13496545 -0.12597345 0.90088803
-0.13526119 -0.12377614 0.90286213
-0.13489369 -0.12097319 0.90040898
-0.13498618 -0.11858783 0.90102643
-0.13447824 -0.11568255 0.897636
-0.13455823 -0.11329085 0.89816988
-0.13440879 -0.11070726 0.89717233
-0.13451175 -0.10833242 0.89785963
-0.13444711 -0.10582189 0.89742821
-0.13446204 -0.1033749 0.89752787
-0.13436987 -0.10084698 0.89691257
-0.134284 -0.098327041 0.89633942
-0.13393642 -0.095623396 0.89401931
-0.1338947 -0.093145236 0.89374083
-0.13361804 -0.090509474 0.89189416
-0.1336872 -0.088111751 0.8923558
-0.13342005 -0.085495971 0.89057255
-0.13372816 -0.083248094 0.89262921
-0.13332935 -0.080561794 0.88996714
-0.1337031 -0.078342766 0.89246196
-0.13299666 -0.075496882 0.88774651
-0.13297121 -0.073050953 0.88757664
-0.13166158 -0.069923937 0.87883484
-0.13159032 -0.067479864 0.8783592
-0.13094573 -0.064754874 0.87405658
-0.13124442 -0.062502667 0.87605035
-0.13077576 -0.059888147 0.87292212
-0.13076259 -0.057491012 0.87283415
-0.13002616 -0.054789603 0.86791849
-0.12991132 -0.05236569 0.86715198
-0.1299358 -0.049999576 0.86731535
-0.13060875 -0.047870245 0.87180728
-0.13066462 -0.045501418 0.87218022
-0.13077968 -0.043150082 0.87294829
-0.13021757 -0.04058348 0.86919612
-0.130704 -0.038345058 0.87244308
-0.13019718 -0.035815619 0.8690601
-0.13032712 -0.033468228 0.86992747
-0.12968741 -0.030932514 0.86565745
-0.12993625 -0.028615879 0.86731839
-0.12983303 -0.026219049 0.86662942
-0.13027677 -0.023926446 0.8695913
-0.13009521 -0.021514211 0.86837947
-0.13031927 -0.019168273 0.86987501
-0.12977064 -0.016714619 0.8662129
-0.13012847 -0.014381208 0.86860144
-0.12957022 -0.011950219 0.86487508
-0.12988289 -0.009604048 0.86696213
-0.12935893 -0.0071998755 0.86346477
-0.12983336 -0.0048521771 0.86663157
-0.12947062 -0.002471149 0.86421025
-0.12965356 -0.00010382451 0.86543143
-0.12925375 0.0022600014 0.86276269
-0.12980153 0.0046431012 0.86641914
-0.1295547 0.0070032808 0.8647716
-0.13004875 0.0094080307 0.86806935
-0.12983213 0.011766441 0.8666234
-0.12977426 0.014134221 0.8662371
-0.1292461 0.016440062 0.86271167
-0.1288958 0.018752467 0.8603735
-0.12902585 0.021130722 0.86124146
-0.12792523 0.023289688 0.85389495
-0.12745768 0.025535228 0.85077405
-0.12680319 0.027722802 0.84640539
-0.12697724 0.030082731 0.84756714
-0.12671663 0.032338098 0.84582752
-0.12657939 0.034617681 0.84491152
-0.12632258 0.036857355 0.84319729
-0.12649128 0.039219566 0.84432334
-0.12632929 0.041479368 0.84324205
-0.12672462 0.043926433 0.84588087
-0.12626328 0.04607534 0.84280145
-0.12627168 0.048387382 0.84285754
-0.12554897 0.050406206 0.83803356
-0.12560147 0.052724 0.83838397
-0.12453883 0.054555222 0.83129084
-0.12437772 0.056758992 0.83021545
-0.12377558 0.058747537 0.82619619
-0.12384873 0.061046932 0.82668447
-0.12320001 0.062979974 0.82235432
-0.12305529 0.065156154 0.8213883
-0.12286616 0.067302719 0.82012588
-0.12315913 0.069715254 0.82208139
-0.12306847 0.071914345 0.82147628
-0.12308351 0.074173808 0.82157665
-0.12266543 0.076164894 0.81878597
-0.12269931 0.078429587 0.81901217
-0.12250202 0.080543526 0.81769526
-0.12263444 0.082873054 0.81857914
-0.1224192 0.084966131 0.81714243
-0.12251052 0.087269709 0.81775194
-0.12204328 0.089168534 0.81463319
-0.1220223 0.091384478 0.81449312
-0.12177107 0.093423001 0.81281614
-0.12216958 0.095962711 0.81547624
-0.1216635 0.097789899 0.81209815
-0.12179741 0.1001247 0.81299204
-0.12133937 0.10196693 0.80993456
-0.12169331 0.10448962 0.81229711
-0.12164386 0.10667153 0.81196702
-0.12199827 0.10921315 0.81433272
-0.12183339 0.11129337 0.81323218
-0.12188749 0.11357159 0.81359327
-0.12173425 0.11565482 0.81257045
-0.12174328 0.11788958 0.81263071
-0.12123789 0.1196171 0.80925721
-0.12138496 0.12198182 0.8102389
-0.12125055 0.12406391 0.80934173
-0.12145842 0.12649757 0.81072927
-0.12067202 0.12788512 0.80548006
-0.12084192 0.13027488 0.80661416
-0.1202426 0.13182749 0.80261368
-0.11984734 0.13358566 0.7999754
-0.11933311 0.13519458 0.79654294
-0.11942167 0.13747862 0.79713404
-0.11950132 0.13975549 0.79766566
-0.11954468 0.14199217 0.7979551
-0.11934488 0.14393717 0.7966215
-0.11969106 0.14654332 0.79893219
-0.11977176 0.14883225 0.79947084
-0.11980216 0.1510607 0.7996738
-0.11942742 0.15277201 0.79717243
-0.11984552 0.15549833 0.79996324
-0.11970822 0.15750913 0.79904675
-0.11987513 0.15992075 0.80016088
-0.11954978 0.16167277 0.79798919
-0.12026376 0.16483745 0.802755
-0.1200272 0.16670801 0.80117595
-0.12004934 0.16893394 0.80132371
-0.11966695 0.17058404 0.79877126
-0.11945098 0.17246044 0.79732966
-0.11887544 0.17380321 0.79348797
-0.11889801 0.17601037 0.79363865
-0.11859807 0.17773502 0.79163659
-0.11882208 0.18024348 0.79313183
-0.11814632 0.1813788 0.78862119
-0.11802585 0.18335205 0.78781706
-0.11717509 0.18417302 0.78213823
-0.11716252 0.18629567 0.78205431
-0.11740799 0.18883288 0.78369278
-0.11741227 0.19098675 0.78372139
-0.11758372 0.19341575 0.78486586
-0.11720773 0.19494049 0.78235608
-0.1167632 0.19633627 0.77938884
-0.11655616 0.19811946 0.77800691
-0.11670861 0.20051269 0.77902448
-0.11640934 0.20212716 0.77702689
-0.1161284 0.20376284 0.77515161
-0.11579492 0.20529512 0.77292567
-0.11614192 0.20803407 0.77524191
-0.11600793 0.20991534 0.77434748
-0.11632235 0.21261133 0.77644622
-0.11607633 0.21428423 0.77480406
-0.11641815 0.21704406 0.77708572
-0.11610093 0.21857563 0.77496827
-0.11621562 0.22091663 0.77573377
-0.11568969 0.22203237 0.77222329
-0.11572684 0.22421981 0.77247125
-0.11550211 0.22589645 0.77097118
-0.11551733 0.22803853 0.77107275
-0.11532564 0.22976893 0.76979321
-0.11508619 0.23139632 0.76819491
-0.11496557 0.23325604 0.76738983
-0.1151618 0.23576 0.76869959
-0.11530869 0.23816922 0.76968008
-0.11530667 0.24027352 0.76966661
-0.11493972 0.24161063 0.76721722
-0.11517271 0.24420644 0.76877248
-0.1153205 0.24662852 0.76975894
-0.11560684 0.24935487 0.77167028
-0.11527483 0.25074664 0.76945412
-0.11518134 0.25264946 0.76883006
-0.11492608 0.25419104 0.7671262
-0.11480026 0.25601196 0.76628637
-0.11439216 0.25719365 0.76356232
-0.11436878 0.2592324 0.76340628
-0.11392446 0.26030847 0.76044041
-0.11406369 0.26271236 0.76136976
-0.11380936 0.26420766 0.75967216
-0.11429944 0.26743543 0.76294339
-0.11392806 0.26864973 0.76046443
-0.11373147 0.27026585 0.75915223
-0.11330348 0.27132064 0.75629544
-0.11344595 0.27373627 0.75724643
-0.11347914 0.27589139 0.75746799
-0.12951958 -0.23170382 0.88064045
-0.13014086 -0.23039119 0.88486463
-0.13022824 -0.22812019 0.88545871
-0.13051474 -0.22619107 0.88740683
-0.13064361 -0.22398096 0.88828295
-0.13102792 -0.22219929 0.89089608
-0.13110708 -0.21989144 0.89143419
-0.1314266 -0.21797936 0.89360678
-0.13128889 -0.21530552 0.89267045
-0.13139695 -0.21303527 0.89340514
-0.13143477 -0.21064843 0.89366227
-0.13125806 -0.20792037 0.89246082
-0.13167641 -0.20613039 0.89530522
-0.13134019 -0.20315768 0.8930192
-0.13171364 -0.20128201 0.89555848
-0.13159485 -0.19864933 0.89475077
-0.1321443 -0.19701739 0.89848667
-0.13192537 -0.19423369 0.89699811
-0.13210915 -0.19204354 0.8982476
-0.13216676 -0.18966551 0.89863932
-0.13262823 -0.18785734 0.90177697
-0.13234229 -0.18498728 0.89983279
-0.13273425 -0.18306279 0.90249783
-0.13267045 -0.18050364 0.90206403
-0.13319629 -0.1787381 0.90563941
-0.13289966 -0.17586461 0.90362251
-0.13322367 -0.17381188 0.90582556
-0.13326125 -0.17137873 0.90608102
-0.13364506 -0.16938302 0.90869069
-0.13334186 -0.16651507 0.90662915
-0.13353376 -0.16426747 0.90793395
-0.13334233 -0.16154827 0.9066323
-0.13375504 -0.15955693 0.90943855
-0.13324656 -0.15646844 0.90598112
-0.1336979 -0.15450814 0.90904999
-0.13331667 -0.15158437 0.9064579
-0.13391784 -0.14977351 0.91054541
-0.13346633 -0.14678253 0.90747547
-0.13398969 -0.14486237 0.91103393
-0.13343658 -0.14177893 0.90727311
-0.13378873 -0.13966112 0.90966761
-0.13346022 -0.13683231 0.90743393
-0.13376115 -0.13464935 0.90948004
-0.13341743 -0.13181825 0.90714294
-0.13349496 -0.12940833 0.90767008
-0.13277288 -0.12623528 0.90276051
-0.13284229 -0.1238269 0.9032324
-0.13255195 -0.12108732 0.90125841
-0.13269715 -0.11874829 0.90224564
-0.13220544 -0.11584574 0.8989023
-0.13217497 -0.1133571 0.89869511
-0.13204405 -0.11078532 0.89780498
-0.13224371 -0.10848961 0.89916247
-0.13200034 -0.10583128 0.89750785
-0.13212726 -0.10347198 0.89837074
-0.1316936 -0.10067941 0.89542222
-0.13176988 -0.098283313 0.89594078
-0.13131042 -0.095494784 0.89281684
-0.13148478 -0.093172491 0.89400232
-0.13115147 -0.090493433 0.89173609
-0.13126312 -0.088125512 0.89249521
-0.13090824 -0.085448906 0.8900823
-0.13111733 -0.083143152 0.89150399
-0.1307472 -0.080473103 0.88898736
-0.13117911 -0.078295544 0.89192402
-0.13053191 -0.07547792 0.88752353
-0.13057359 -0.0730699 0.88780683
-0.12925698 -0.069925524 0.87885487
-0.12922218 -0.067499772 0.87861836
-0.12855485 -0.064756669 0.8740809
-0.12895048 -0.062554076 0.87677091
-0.12851687 -0.059949927 0.87382263
-0.12830651 -0.057461917 0.87239242
-0.12741852 -0.054690886 0.8663547
-0.12742546 -0.052320395 0.86640191
-0.12745979 -0.049960375 0.86663532
-0.12806575 -0.047812488 0.87075537
-0.12784013 -0.045347057 0.86922139
-0.12801467 -0.043024518 0.87040806
-0.12762156 -0.04051527 0.86773521
-0.12801863 -0.038256802 0.870435
-0.12752648 -0.035734374 0.86708874
-0.12775438 -0.033418629 0.86863822
-0.1274119 -0.030955821 0.8663097
-0.12766795 -0.028640037 0.86805063
-0.12740509 -0.026207976 0.86626339
-0.12765536 -0.0238817 0.86796498
-0.12748314 -0.021474931 0.86679405
-0.12766463 -0.019127574 0.86802804
-0.12731148 -0.016703313 0.86562693
-0.12782553 -0.014389827 0.86912203
-0.12738797 -0.011967793 0.86614698
-0.12761067 -0.009611791 0.86766118
-0.12691601 -0.007195483 0.86293799
-0.12725982 -0.004844585 0.86527562
-0.12683223 -0.0024658823 0.86236835
-0.12710564 -0.00010368005 0.86422729
-0.12692475 0.002260616 0.86299741
-0.12732929 0.0046395049 0.86574799
-0.12714183 0.0070008663 0.86447346
-0.12752947 0.0093976241 0.86710912
-0.1273824 0.011759459 0.86610913
-0.12726463 0.014119066 0.86530834
-0.12687819 0.016439473 0.86268079
-0.12652414 0.018750288 0.86027354
-0.12647246 0.021098353 0.85992217
-0.12549324 0.023272483 0.85326415
-0.12509136 0.025527952 0.85053164
-0.12460076 0.027748697 0.84719592
-0.12456039 0.030059813 0.84692144
-0.12442376 0.032344408 0.84599251
-0.12440328 0.034656264 0.84585321
-0.12429295 0.036940657 0.84510303
-0.12441402 0.039294019 0.84592623
-0.12413806 0.041519109 0.84404993
-0.12444381 0.043939307 0.84612882
-0.12411585 0.04613534 0.84389895
-0.12394459 0.048380315 0.84273446
-0.12312414 0.050353423 0.837156
-0.12291671 0.052558079 0.83574557
-0.12180271 0.054350492 0.82817119
-0.12155387 0.05650356 0.82647926
-0.12091406 0.058458343 0.82212907
-0.12118737 0.060847763 0.82398736
-0.12061743 0.06280826 0.82011211
-0.12063088 0.065062173 0.82020354
-0.12038397 0.067171328 0.81852478
-0.12059401 0.069534756 0.81995291
-0.12035873 0.071640946 0.81835318
-0.12035205 0.073878691 0.81830776
-0.12034343 0.07611496 0.81824917
-0.12060538 0.078527078 0.82003021
-0.12060813 0.080775365 0.82004893
-0.12041406 0.08288826 0.81872934
-0.11998598 0.084828496 0.81581873
-0.11994666 0.087034866 0.8155514
-0.11974496 0.089118928 0.81418002
-0.11971591 0.091327175 0.81398243
-0.11964989 0.093505457 0.81353354
-0.11964472 0.095729969 0.81349844
-0.11920477 0.097598314 0.81050712
-0.11908501 0.099718377 0.8096928
-0.11904593 0.10190304 0.80942708
-0.11940172 0.10443161 0.81184614
-0.11933209 0.10659345 0.81137276
-0.11956774 0.10903107 0.81297505
-0.11914495 0.11086477 0.81010032
-0.11913326 0.11307291 0.81002086
-0.11904751 0.11520894 0.80943781
-0.11928389 0.11765954 0.81104505
-0.11879732 0.11939235 0.80773669
-0.11873718 0.12154356 0.80732781
-0.11881711 0.1238385 0.80787122
-0.11905295 0.12630183 0.80947477
-0.11831132 0.12771876 0.80443227
-0.11816365 0.12976031 0.80342817
-0.1178306 0.13158934 0.80116367
-0.11746339 0.13336715 0.79866689
-0.11698642 0.13500464 0.79542387
-0.1169731 0.13716806 0.79533333
-0.11723471 0.1396585 0.79711211
-0.11729655 0.14191698 0.7975325
-0.11707544 0.14383015 0.79602915
-0.11724587 0.14622338 0.79718792
-0.11704618 0.1481545 0.79583025
-0.11697444 0.15024248 0.79534239
-0.11684175 0.15224841 0.79444021
-0.11740166 0.15516476 0.79824722
-0.11727623 0.15718341 0.79739439
-0.117103 0.15913242 0.79621649
-0.11686231 0.16098209 0.79458004
-0.11748375 0.16402642 0.79880536
-0.11759032 0.16636552 0.79952997
-0.11760836 0.16858165 0.79965264
-0.11736312 0.17041616 0.79798514
-0.11714665 0.17228386 0.79651332
-0.11670907 0.17381419 0.79353809
-0.11667271 0.17593323 0.79329085
-0.11598168 0.17705153 0.78859234
-0.11572946 0.17882213 0.78687745
-0.11520302 0.1801545 0.78329802
-0.11530067 0.18245484 0.78396201
-0.11501019 0.1841374 0.78198695
-0.11504904 0.18634257 0.78225112
-0.11500607 0.1884151 0.78195888
-0.11499023 0.190531 0.78185123
-0.1149834 0.1926614 0.7818048
-0.11464212 0.19422494 0.77948433
-0.11448474 0.19609076 0.77841425
-0.11428728 0.1978813 0.77707165
-0.11427084 0.19998127 0.77695984
-0.11394984 0.20154199 0.77477735
-0.11376511 0.20333429 0.7735213
-0.11358061 0.20512013 0.77226686
-0.11384862 0.20772472 0.7740891
-0.11383531 0.20982078 0.77399862
-0.11404812 0.21233732 0.77544552
-0.11390485 0.21419223 0.7744714
-0.11392783 0.21635751 0.77462769
-0.11378884 0.21821304 0.77368265
-0.11388204 0.22051296 0.77431631
-0.11365619 0.22219265 0.77278072
-0.11347838 0.22395872 0.7715717
-0.11294726 0.2250143 0.76796043
-0.11297254 0.22716895 0.76813239
-0.11281792 0.22895941 0.76708108
-0.11279725 0.23101847 0.76694053
-0.1126462 0.23280729 0.76591349
-0.11292014 0.23547678 0.76777613
-0.11320332 0.23817585 0.76970154
-0.11332842 0.24054995 0.7705521
-0.11297752 0.2419095 0.76816624
-0.11314109 0.24436715 0.76927841
-0.11318521 0.24657068 0.7695784
-0.1135733 0.24953155 0.77221709
-0.11351129 0.25150964 0.77179551
-0.11334638 0.25325546 0.77067417
-0.11309361 0.25479722 0.76895559
-0.11272648 0.25606975 0.76645935
-0.11223586 0.25704584 0.76312345
-0.11202292 0.25864473 0.76167566
-0.11167392 0.25991902 0.75930268
-0.11186425 0.26244563 0.76059675
-0.11172054 0.26418942 0.75961965
-0.11201498 0.26697212 0.76162165
-0.11167851 0.26825035 0.75933391
-0.11157064 0.27006942 0.75860047
-0.11122622 0.27130744 0.75625867
-0.11122 0.27336389 0.75621635
-0.11106974 0.2750634 0.75519466
-0.12761509 -0.23262984 0.88415998
-0.12806387 -0.23101726 0.8872692
-0.12796326 -0.22840706 0.88657218
-0.12830092 -0.22657461 0.8889116
-0.12850876 -0.22450256 0.89035153
-0.12888715 -0.22271733 0.89297318
-0.12867011 -0.21990013 0.89146942
-0.12887129 -0.21779799 0.89286327
-0.12865148 -0.21498474 0.89134043
-0.12883767 -0.21285053 0.8926304
-0.12937966 -0.21129031 0.89638543
-0.12933157 -0.2087571 0.8960523
-0.12980576 -0.20705879 0.89933759
-0.12920396 -0.20364656 0.89516813
-0.12942314 -0.2015356 0.89668673
-0.12927136 -0.19884567 0.89563513
-0.12989031 -0.19733243 0.89992338
-0.12956218 -0.19437486 0.89765006
-0.12974276 -0.19218324 0.89890105
-0.1297579 -0.18974289 0.89900601
-0.13034679 -0.18813007 0.90308607
-0.13003604 -0.18521346 0.90093303
-0.13035205 -0.1831895 0.90312248
-0.13013832 -0.18041913 0.90164173
-0.1306989 -0.17871565 0.90552557
-0.1302394 -0.1756154 0.90234202
-0.13070561 -0.17376325 0.90557206
-0.13070309 -0.17127918 0.90555465
-0.13134292 -0.16962475 0.90998751
-0.13102049 -0.1667216 0.90775365
-0.13136457 -0.16466615 0.91013753
-0.13103279 -0.16176327 0.90783888
-0.13139771 -0.15971984 0.91036713
-0.13098064 -0.15672688 0.90747756
-0.13145876 -0.1548039 0.91079009
-0.13109621 -0.1518888 0.90827835
-0.13147725 -0.14983484 0.9109183
-0.13121824 -0.14704914 0.90912378
-0.13168117 -0.14506863 0.9123311
-0.13109596 -0.14193574 0.9082765
-0.13138926 -0.13975953 0.9103086
-0.13092534 -0.13678113 0.90709448
-0.13129516 -0.13467552 0.9096567
-0.13087945 -0.13176501 0.90677649
-0.13112935 -0.12952778 0.90850794
-0.13038632 -0.1263191 0.90335989
-0.13051437 -0.12396601 0.90424711
-0.13014774 -0.12114758 0.90170693
-0.1302966 -0.11881313 0.90273827
-0.12980793 -0.11590378 0.89935267
-0.12984662 -0.11347385 0.89962071
-0.12963891 -0.1108318 0.89818162
-0.12988462 -0.10857667 0.89988399
-0.12953539 -0.10582615 0.89746439
-0.12963003 -0.10344311 0.89812005
-0.12909946 -0.10056943 0.89444411
-0.12944965 -0.098385282 0.89687037
-0.12899071 -0.095588244 0.89369065
-0.1293688 -0.093413018 0.89631021
-0.12895812 -0.090668872 0.89346492
-0.12929031 -0.08844851 0.89576638
-0.12858333 -0.08552435 0.89086813
-0.12885381 -0.083258636 0.89274222
-0.12833157 -0.080485471 0.88912398
-0.12876435 -0.078312956 0.89212239
-0.12802862 -0.075435527 0.887025
-0.1278812 -0.072921492 0.88600361
-0.12683369 -0.069916874 0.87874615
-0.12663168 -0.067402057 0.87734646
-0.12629385 -0.064825207 0.87500596
-0.12665206 -0.062605217 0.87748772
-0.12621839 -0.059995241 0.87448311
-0.12584861 -0.057430875 0.87192112
-0.12490849 -0.054631107 0.86540771
-0.12502018 -0.052307084 0.86618149
-0.12483386 -0.049859796 0.86489064
-0.12540391 -0.047707323 0.86884016
-0.12513344 -0.045229405 0.86696619
-0.12550563 -0.042981848 0.8695448
-0.12499724 -0.040435303 0.86602253
-0.12519516 -0.038123135 0.86739379
-0.12472609 -0.035613012 0.86414391
-0.12523158 -0.03338046 0.8676461
-0.12496707 -0.030938093 0.86581355
-0.12518878 -0.028616909 0.86734962
-0.12470099 -0.026138593 0.86397004
-0.12507103 -0.023842322 0.86653382
-0.12495665 -0.021448849 0.86574131
-0.12535156 -0.019137476 0.8684774
-0.12494072 -0.01670339 0.86563092
-0.12538089 -0.01438252 0.86868066
-0.12471786 -0.011939329 0.86408693
-0.12503238 -0.0095963366 0.86626607
-0.12453702 -0.0071946159 0.86283404
-0.12488395 -0.0048443726 0.86523765
-0.12440828 -0.0024646632 0.86194205
-0.12465604 -0.00010361183 0.86365867
-0.12450378 0.0022595848 0.86260372
-0.12484185 0.0046352069 0.86494601
-0.12463804 0.0069932579 0.86353391
-0.12494298 0.0093817739 0.86564666
-0.12459861 0.011720785 0.86326069
-0.12437815 0.014060733 0.86173332
-0.12400605 0.01637229 0.85915524
-0.12377003 0.018690273 0.85752004
-0.12360334 0.021011081 0.85636514
-0.12272815 0.023191679 0.85030156
-0.12251184 0.025476066 0.84880292
-0.12207572 0.027702363 0.84578133
-0.12246742 0.030115668 0.84849513
-0.12234668 0.032408103 0.84765857
-0.1223291 0.034725245 0.8475368
-0.12198582 0.036943078 0.8451584
-0.12199178 0.039260272 0.8451997
-0.12179112 0.041507281 0.84380949
-0.12198436 0.04388839 0.84514832
-0.12177306 0.046123609 0.84368438
-0.12146535 0.048312459 0.84155244
-0.12045561 0.050197076 0.83455664
-0.12038318 0.052451752 0.83405483
-0.1193867 0.054283526 0.82715082
-0.11916906 0.056446388 0.825643
-0.11836569 0.058312427 0.820077
-0.11846123 0.06060788 0.82073891
-0.11802655 0.062625617 0.81772733
-0.11812714 0.064921036 0.81842428
-0.11810835 0.067152396 0.81829405
-0.11821731 0.069458097 0.81904894
-0.11797357 0.07155402 0.81736022
-0.11810102 0.073872864 0.81824327
-0.11808457 0.076103806 0.8181293
-0.11827583 0.078471936 0.81945437
-0.11807216 0.080577806 0.81804329
-0.11809482 0.082834698 0.81820029
-0.11785719 0.084904939 0.81655389
-0.11800767 0.087253124 0.81759655
-0.11755541 0.089149915 0.81446308
-0.11742362 0.091278657 0.81355
-0.11734152 0.093441971 0.81298119
-0.11734252 0.09566991 0.8129881
-0.11700583 0.097616173 0.81065542
-0.11665647 0.099538833 0.80823493
-0.11673961 0.10182548 0.80881095
-0.1170539 0.10432129 0.81098849
-0.11699422 0.10648865 0.81057495
-0.11692276 0.10864279 0.81007987
-0.11643361 0.11039817 0.80669087
-0.11629871 0.1124776 0.80575627
-0.11621962 0.11460694 0.80520827
-0.11647752 0.11707201 0.80699509
-0.11621908 0.11901808 0.80520457
-0.11627895 0.12128635 0.80561936
-0.11620516 0.12341494 0.80510813
-0.11652621 0.12596756 0.80733246
-0.11586789 0.12745507 0.80277139
-0.11585614 0.12964109 0.80268997
-0.11563906 0.13159299 0.80118597
-0.11548105 0.133605 0.80009121
-0.11488443 0.13509524 0.79595762
-0.11481874 0.13719724 0.79550248
-0.11487062 0.13943946 0.79586196
-0.11488016 0.14163147 0.79592806
-0.11461334 0.14347786 0.79407942
-0.11470488 0.14576955 0.79471368
-0.11461562 0.1478315 0.79409522
-0.11461638 0.15000789 0.79410052
-0.11451736 0.15205184 0.79341447
-0.11496703 0.15483093 0.79652989
-0.11474028 0.15670334 0.79495895
-0.11469839 0.15882307 0.79466867
-0.11435875 0.1605233 0.79231554
-0.11502621 0.16364338 0.79693991
-0.11521117 0.16609323 0.79822141
-0.11524532 0.16832981 0.79845804
-0.11495998 0.17009495 0.79648107
-0.1149215 0.17221923 0.79621452
-0.11466707 0.1740143 0.79445171
-0.11453411 0.17598639 0.79353052
-0.11366038 0.17680113 0.78747702
-0.11301596 0.17794375 0.78301227
-0.11265612 0.17951536 0.78051913
-0.11288574 0.18202384 0.7821101
-0.11279783 0.18402298 0.781501
-0.11287531 0.18629174 0.78203779
-0.11264934 0.18805686 0.78047216
-0.11247512 0.1899008 0.77926517
-0.11257033 0.19219813 0.77992481
-0.11213809 0.19358848 0.77693003
-0.11223071 0.19587854 0.7775718
-0.11178437 0.19722117 0.77447939
-0.11189049 0.19953208 0.77521467
-0.11167232 0.20126255 0.7737031
-0.11170117 0.20343462 0.77390295
-0.11145104 0.20509438 0.77216995
-0.11151819 0.20733456 0.77263522
-0.11138871 0.20920798 0.77173811
-0.11130147 0.21115661 0.77113366
-0.11102875 0.21274658 0.76924425
-0.11097684 0.21475342 0.76888454
-0.11092477 0.21675801 0.76852381
-0.11108924 0.21918784 0.76966327
-0.11094575 0.22101046 0.76866913
-0.11093304 0.22309065 0.76858109
-0.11058316 0.22448589 0.76615703
-0.11063536 0.22669169 0.76651865
-0.11063935 0.22879979 0.76654631
-0.11090936 0.23146321 0.768417
-0.11081813 0.23337615 0.76778495
-0.11088225 0.23561575 0.76822925
-0.11067022 0.23726569 0.76676017
-0.11079692 0.23964024 0.76763803
-0.11048693 0.2410668 0.76549029
-0.11085631 0.24397677 0.76804948
-0.11085386 0.24607536 0.76803249
-0.11135545 0.24930234 0.77150774
-0.11112987 0.25090653 0.76994479
-0.11110442 0.25295782 0.76976848
-0.11074979 0.25425243 0.76731145
-0.11054636 0.25588357 0.76590204
-0.11001504 0.25674182 0.76222092
-0.10989891 0.25855666 0.76141632
-0.10954663 0.25980705 0.75897563
-0.10981315 0.26252338 0.76082212
-0.1095361 0.26394004 0.75890267
-0.10987335 0.26683807 0.76123923
-0.10945006 0.26788744 0.75830656
-0.10940363 0.26985025 0.75798488
-0.10884728 0.27054387 0.75413024
-0.10870314 0.27224877 0.75313157
-0.1086436 0.27416173 0.7527191
-0.12542443 -0.23305991 0.88579458
-0.12591507 -0.23153549 0.88925958
-0.12582076 -0.22892784 0.88859361
-0.12602772 -0.22686613 0.89005524
-0.12596194 -0.22431073 0.88959074
-0.12627193 -0.22241974 0.89177996
-0.12618449 -0.2198244 0.8911624
-0.12641488 -0.21778001 0.89278954
-0.12623045 -0.21502008 0.89148694
-0.12672491 -0.21341059 0.89497912
-0.12739861 -0.21208031 0.89973694
-0.1274866 -0.20976031 0.90035844
-0.12778825 -0.20778428 0.90248871
-0.12702069 -0.20407875 0.8970679
-0.12727001 -0.20201704 0.8988288
-0.12723841 -0.19950515 0.89860553
-0.12782815 -0.19795674 0.90277052
-0.12740554 -0.19483735 0.89978588
-0.12762135 -0.1926983 0.90131009
-0.12750553 -0.19005655 0.90049207
-0.1279117 -0.18818727 0.90336066
-0.12747483 -0.18507825 0.90027529
-0.12774202 -0.18299474 0.90216231
-0.12761062 -0.18033759 0.90123427
-0.12810972 -0.17856438 0.90475917
-0.1278324 -0.17570463 0.9028005
-0.12827396 -0.17382984 0.90591908
-0.12824042 -0.1713033 0.90568221
-0.12881008 -0.16957214 0.90970528
-0.12853879 -0.16672815 0.90778935
-0.12903713 -0.16487804 0.91130877
-0.12866452 -0.16191268 0.90867734
-0.1290752 -0.15993223 0.9115777
-0.12875794 -0.15704803 0.9093371
-0.12926528 -0.15516593 0.91292006
-0.12876908 -0.152079 0.90941578
-0.12915201 -0.15003254 0.91212016
-0.12900108 -0.1473614 0.91105425
-0.12953575 -0.14546601 0.91483021
-0.12871343 -0.14205235 0.90902275
-0.12894107 -0.13980894 0.9106304
-0.1283232 -0.1366563 0.90626675
-0.1286965 -0.13456395 0.90890318
-0.12824441 -0.13161008 0.9057104
-0.12858178 -0.1294686 0.90809292
-0.12803373 -0.12643971 0.90422237
-0.12827072 -0.12419208 0.90589613
-0.12768239 -0.12115217 0.90174109
-0.12777349 -0.11876658 0.90238458
-0.12723093 -0.11580069 0.89855278
-0.12736407 -0.11345774 0.89949298
-0.12694317 -0.11062682 0.8965205
-0.12714116 -0.10833956 0.89791876
-0.12678225 -0.10558085 0.89538407
-0.12705927 -0.10335331 0.89734042
-0.12667738 -0.10059183 0.89464337
-0.12689112 -0.098306574 0.89615285
-0.12638207 -0.095467076 0.8925578
-0.12666039 -0.093226805 0.89452344
-0.12639296 -0.090584621 0.89263469
-0.12669888 -0.088352613 0.89479518
-0.12606478 -0.085471429 0.8903169
-0.12631249 -0.083195604 0.89206636
-0.12586758 -0.080467388 0.88892424
-0.12616853 -0.078218788 0.89104968
-0.12557271 -0.075419948 0.88684183
-0.12555939 -0.072982728 0.88674766
-0.12454867 -0.069985576 0.87960958
-0.12434264 -0.067464143 0.87815458
-0.12378584 -0.064767145 0.87422222
-0.12390196 -0.062430747 0.87504226
-0.12335471 -0.05976845 0.87117743
-0.12312888 -0.057276834 0.86958247
-0.12251592 -0.054621376 0.86525357
-0.1226157 -0.052293602 0.86595827
-0.12237243 -0.049822297 0.86424017
-0.12277881 -0.047612332 0.86711019
-0.1226063 -0.045173358 0.86589187
-0.12313478 -0.042985771 0.8696242
-0.12278993 -0.040489752 0.86718869
-0.12287668 -0.038141053 0.86780143
-0.12212471 -0.03554488 0.86249071
-0.12244741 -0.033269797 0.8647697
-0.12225201 -0.030851481 0.86338973
-0.12270004 -0.028590653 0.86655384
-0.12236385 -0.026144933 0.86417961
-0.12262752 -0.02382878 0.86604172
-0.12232482 -0.021403329 0.863904
-0.12248524 -0.019061662 0.8650369
-0.1221652 -0.016648313 0.86277664
-0.12248506 -0.014322169 0.86503559
-0.12205602 -0.011910571 0.86200559
-0.1223615 -0.0095730396 0.86416304
-0.12205648 -0.0071877358 0.86200887
-0.12220293 -0.0048320852 0.86304307
-0.12176341 -0.0024589358 0.85993904
-0.12206792 -0.0001034236 0.86208963
-0.12218045 0.0022603201 0.8628844
-0.12248056 0.004635517 0.86500388
-0.12226975 0.0069931047 0.86351502
-0.12220126 0.0093534291 0.86303133
-0.12189279 0.011688092 0.86085278
-0.12151557 0.014002897 0.85818875
-0.12129319 0.016323943 0.85661817
-0.12107544 0.018637098 0.85508037
-0.12097531 0.020962209 0.85437322
-0.12039851 0.023191627 0.85029966
-0.1202316 0.025485609 0.84912086
-0.11977222 0.027705481 0.84587651
-0.12010581 0.030106343 0.84823245
-0.11988018 0.032369122 0.84663898
-0.11988154 0.034688853 0.84664857
-0.11938097 0.03685369 0.84311342
-0.1195421 0.03921622 0.84425133
-0.11950919 0.041517582 0.84401894
-0.11969188 0.043896742 0.84530914
-0.11941828 0.046106797 0.84337687
-0.11876462 0.048152171 0.83876044
-0.1177111 0.050002404 0.83132011
-0.11765882 0.052256551 0.83095086
-0.11710541 0.054276418 0.82704252
-0.11697319 0.056478228 0.82610875
-0.11615288 0.058329377 0.82031536
-0.11610705 0.060552701 0.81999171
-0.11582649 0.062647291 0.81801033
-0.11609105 0.065036409 0.8198787
-0.11601661 0.067239292 0.81935298
-0.11600631 0.069477715 0.81928027
-0.11549316 0.071404837 0.81565619
-0.11566073 0.073746145 0.81683969
-0.11548103 0.075865783 0.81557053
-0.11565406 0.078217037 0.81679255
-0.11554487 0.080378644 0.81602138
-0.11577795 0.082780764 0.81766754
-0.1156356 0.084916197 0.81666219
-0.11578853 0.087268673 0.81774223
-0.11527528 0.089112081 0.81411743
-0.11505403 0.09116701 0.8125549
-0.11458877 0.093015306 0.80926907
-0.11456902 0.095215857 0.8091296
-0.11433573 0.09723404 0.807482
-0.11415891 0.099292316 0.80623323
-0.11427502 0.10160419 0.80705327
-0.11471625 0.10421592 0.81016934
-0.1147432 0.10646036 0.81035966
-0.11443364 0.10838711 0.80817348
-0.11398537 0.11016782 0.80500764
-0.11383837 0.11222818 0.8039695
-0.11378832 0.11438031 0.80361599
-0.11375616 0.11654884 0.80338883
-0.11347145 0.11845249 0.80137813
-0.11355551 0.12073721 0.80197179
-0.11335757 0.12271989 0.80057389
-0.11381117 0.12541287 0.80377734
-0.11325096 0.12698662 0.7998209
-0.11354451 0.12951255 0.80189407
-0.11325058 0.13136834 0.79981822
-0.1133119 0.13363174 0.80025131
-0.11273317 0.13513029 0.7961641
-0.11278284 0.13737185 0.79651493
-0.11275747 0.13952248 0.79633576
-0.1127404 0.14168257 0.79621518
-0.11255154 0.14362276 0.79488134
-0.11235446 0.14554501 0.79348952
-0.11244585 0.14783891 0.79413497
-0.11250871 0.15009825 0.79457885
-0.11265858 0.15247782 0.79563731
-0.11278156 0.15482627 0.79650587
-0.11241818 0.15650238 0.79393953
-0.11222757 0.15840831 0.79259342
-0.11180562 0.15997584 0.78961337
-0.11226873 0.16281055 0.79288405
-0.11246819 0.16527575 0.79429275
-0.11273637 0.16785097 0.79618669
-0.11262758 0.16986801 0.79541838
-0.11279413 0.17230144 0.79659462
-0.11248077 0.17399895 0.79438162
-0.11219848 0.17573299 0.7923879
-0.11111844 0.17619117 0.78476024
-0.11045736 0.17727998 0.78009146
-0.11015543 0.17892657 0.77795911
-0.11038673 0.18143794 0.77959263
-0.11064339 0.18400043 0.78140527
-0.11071751 0.18626577 0.78192872
-0.11052078 0.18807307 0.78053939
-0.11024472 0.1897362 0.77858973
-0.11040068 0.19214055 0.77969116
-0.10982139 0.19325708 0.77560002
-0.10985406 0.19543993 0.77583075
-0.109329 0.196621 0.77212256
-0.10958656 0.1992044 0.77394158
-0.10940281 0.20098701 0.77264386
-0.10929789 0.20290884 0.77190286
-0.10905744 0.20457241 0.77020472
-0.10900689 0.20658654 0.76984769
-0.10882109 0.20833981 0.76853555
-0.10850287 0.20982978 0.76628816
-0.10834927 0.211629 0.76520336
-0.10840527 0.2138357 0.76559883
-0.10835107 0.21582507 0.76521605
-0.10826983 0.21775797 0.76464236
-0.10820302 0.219717 0.76417047
-0.1084244 0.22226422 0.7657339
-0.10825577 0.22401297 0.764543
-0.10848717 0.22659074 0.7661773
-0.10843159 0.22857246 0.76578468
-0.10853706 0.23089467 0.76652956
-0.10811102 0.23207998 0.76352072
-0.10823125 0.23443209 0.7643699
-0.10811643 0.23627511 0.76355898
-0.10839967 0.23899129 0.76555926
-0.10808048 0.2403786 0.76330501
-0.10837068 0.2431207 0.76535451
-0.10827284 0.24499598 0.76466358
-0.10860733 0.24785408 0.76702589
-0.10851779 0.24974924 0.76639348
-0.10869635 0.25226316 0.76765454
-0.10842258 0.25372544 0.76572108
-0.10826606 0.2554538 0.76461565
-0.10766179 0.256111 0.76034814
-0.10761578 0.25808358 0.76002318
-0.10751282 0.25991672 0.759296
-0.10787035 0.26286805 0.76182103
-0.10751557 0.26408359 0.75931543
-0.10737686 0.26582032 0.75833583
-0.10705347 0.26709095 0.75605196
-0.10716381 0.26943952 0.75683117
-0.10687029 0.27076918 0.75475824
-0.10657071 0.27207199 0.75264251
-0.10635184 0.27357084 0.75109679
-0.12341458 -0.2338496 0.88879591
-0.12390942 -0.23234263 0.89235955
-0.12380353 -0.22970159 0.89159697
-0.12416283 -0.22791864 0.89418453
-0.12393345 -0.22505252 0.89253259
-0.12418507 -0.2230594 0.89434469
-0.12404204 -0.2203553 0.89331466
-0.12436812 -0.21848094 0.89566302
-0.12421994 -0.2157699 0.8945958
-0.12457637 -0.21393129 0.8971628
-0.12532975 -0.21275242 0.90258831
-0.12549438 -0.21055605 0.90377396
-0.12591217 -0.20877294 0.90678287
-0.12506634 -0.20490307 0.90069139
-0.12525387 -0.20273919 0.90204191
-0.125067 -0.19996928 0.90069604
-0.12554117 -0.19825065 0.90411091
-0.1250688 -0.19503725 0.90070903
-0.1253534 -0.19300799 0.90275866
-0.12518045 -0.19027205 0.90151316
-0.12551531 -0.18830478 0.90392476
-0.12519446 -0.18535347 0.90161407
-0.12555376 -0.18340838 0.90420157
-0.12541489 -0.18073127 0.90320158
-0.12586859 -0.17890182 0.90646893
-0.12551327 -0.17592058 0.90391004
-0.12590107 -0.17398022 0.90670282
-0.12557152 -0.17104745 0.90432948
-0.12636097 -0.16962984 0.91001487
-0.12619391 -0.16691592 0.90881175
-0.12676284 -0.16516757 0.91290903
-0.12618619 -0.16192672 0.9087562
-0.12647392 -0.15980075 0.91082829
-0.126247 -0.15702334 0.90919411
-0.12667885 -0.15506126 0.91230422
-0.12629661 -0.15210168 0.90955138
-0.1266288 -0.15000352 0.91194379
-0.12654378 -0.14740624 0.91133142
-0.12691665 -0.14533666 0.91401672
-0.12629229 -0.14213009 0.90952027
-0.12645356 -0.13981682 0.91068172
-0.12585153 -0.13666826 0.90634608
-0.12611891 -0.13447046 0.90827167
-0.12572202 -0.13156691 0.90541333
-0.12585878 -0.12922701 0.90639836
-0.12534542 -0.12622699 0.90270126
-0.12559463 -0.12400012 0.90449595
-0.12527175 -0.12120989 0.90217072
-0.12533619 -0.11879949 0.90263468
-0.12477884 -0.11580947 0.89862084
-0.12488671 -0.11344572 0.89939767
-0.12439557 -0.1105454 0.89586067
-0.12455367 -0.10822861 0.89699924
-0.12428268 -0.10554118 0.89504766
-0.12459988 -0.10335235 0.89733207
-0.12429927 -0.10065073 0.89516717
-0.12439273 -0.098272271 0.89584017
-0.12396549 -0.095489055 0.89276332
-0.12421241 -0.09322869 0.89454156
-0.12398375 -0.090611026 0.89289486
-0.12425545 -0.088358179 0.89485157
-0.12362311 -0.085469581 0.89029765
-0.1239982 -0.083282575 0.89299893
-0.1235817 -0.080564715 0.88999939
-0.12372997 -0.07822033 0.89106727
-0.1228914 -0.075265698 0.88502806
-0.12287449 -0.072831176 0.88490629
-0.12217557 -0.070006527 0.87987286
-0.1219707 -0.067482799 0.87839746
-0.12103472 -0.06457708 0.87165678
-0.12094972 -0.062145535 0.8710447
-0.12048513 -0.059529793 0.86769879
-0.12075721 -0.057281822 0.86965823
-0.12045517 -0.054762114 0.86748302
-0.12051125 -0.05241007 0.8678869
-0.12019555 -0.049901459 0.86561334
-0.12058242 -0.047683127 0.8683995
-0.12036594 -0.045222841 0.86684042
-0.1208792 -0.04303088 0.8705368
-0.12036081 -0.040471766 0.86680347
-0.12051097 -0.038144719 0.86788487
-0.11956558 -0.035486601 0.86107653
-0.11993737 -0.033230718 0.86375397
-0.11955904 -0.030767141 0.86102939
-0.12019172 -0.028558714 0.8655858
-0.11982103 -0.026106708 0.86291617
-0.12025414 -0.023828603 0.86603528
-0.12005849 -0.021421224 0.86462629
-0.12028828 -0.01908908 0.86628115
-0.11974701 -0.016640719 0.86238307
-0.11972701 -0.014275867 0.86223906
-0.1192469 -0.011866022 0.85878146
-0.11976591 -0.0095548304 0.86251926
-0.11967122 -0.0071863048 0.86183727
-0.1199073 -0.0048348536 0.86353749
-0.11952036 -0.0024612569 0.86075079
-0.11969386 -0.00010341289 0.86200035
-0.11963338 0.0022568635 0.86156482
-0.11971686 0.004620309 0.86216599
-0.11942461 0.0069651348 0.86006129
-0.11947574 0.0093252314 0.86042953
-0.11919028 0.011654433 0.8583737
-0.11896263 0.013979164 0.85673422
-0.11856086 0.016271016 0.85384077
-0.11818784 0.01855153 0.85115445
-0.1180394 0.020857004 0.85008538
-0.11777429 0.023133708 0.84817612
-0.11784258 0.025472017 0.84866798
-0.11755933 0.027730096 0.84662807
-0.11791982 0.030141544 0.84922421
-0.11752304 0.032358713 0.8463667
-0.11722487 0.034589324 0.84421939
-0.11665057 0.036721241 0.84008342
-0.11698838 0.039135624 0.84251624
-0.11720628 0.041520856 0.84408545
-0.11728434 0.043862391 0.84464765
-0.1166627 0.045931522 0.8401708
-0.11591049 0.047922146 0.83475363
-0.11514339 0.049876638 0.82922918
-0.11506187 0.052111354 0.82864207
-0.11479186 0.054253779 0.82669753
-0.11477526 0.056510307 0.82657796
-0.114192 0.058476012 0.82237756
-0.11388586 0.060566075 0.82017279
-0.11365904 0.062687807 0.81853932
-0.11389283 0.065063715 0.82022297
-0.1138601 0.067291349 0.8199873
-0.11387103 0.069544345 0.82006598
-0.11337178 0.071476132 0.81647056
-0.11360267 0.07386294 0.81813335
-0.11326469 0.075877771 0.81569934
-0.11337078 0.078185514 0.81646335
-0.11303154 0.080181539 0.81402028
-0.11327776 0.08259102 0.8157934
-0.11330493 0.084846206 0.81598908
-0.11370008 0.087385274 0.81883484
-0.11313725 0.089184761 0.81478149
-0.11272386 0.091082811 0.81180441
-0.11193467 0.092653461 0.80612087
-0.11198635 0.0949056 0.8064931
-0.11184706 0.096994169 0.80548996
-0.11195204 0.099293888 0.80624604
-0.11187267 0.1014306 0.80567443
-0.11230461 0.10403787 0.80878514
-0.11216602 0.10612238 0.807787
-0.11183458 0.10801516 0.80540007
-0.11149341 0.10988527 0.80294305
-0.1117357 0.11232848 0.80468798
-0.11167645 0.11447215 0.80426127
-0.11165982 0.11665802 0.80414146
-0.11101476 0.11817428 0.799496
-0.11119551 0.12056044 0.8007977
-0.11075386 0.12226664 0.79761708
-0.11129329 0.12505782 0.80150187
-0.11064373 0.1265108 0.79682392
-0.11104145 0.12915626 0.79968816
-0.11077183 0.13102806 0.79774642
-0.11113144 0.13364592 0.8003363
-0.11050109 0.13506791 0.79579663
-0.11057795 0.13734344 0.79635018
-0.11039854 0.13929863 0.79505813
-0.11053763 0.14165492 0.79605985
-0.11025707 0.14347062 0.79403931
-0.11005557 0.14537966 0.79258811
-0.11013305 0.14765483 0.79314619
-0.11026189 0.1500029 0.79407406
-0.11036486 0.15232036 0.7948156
-0.11050694 0.15469661 0.79583883
-0.11016435 0.15639043 0.79337156
-0.11010668 0.15848082 0.79295623
-0.10950831 0.15978004 0.78864694
-0.11004975 0.16274118 0.79254621
-0.11007705 0.16495325 0.79274285
-0.11030768 0.1674751 0.79440379
-0.11005817 0.16926759 0.79260689
-0.11034077 0.17187911 0.79464209
-0.11001942 0.1735491 0.79232782
-0.10977745 0.17533319 0.79058522
-0.10887147 0.17603408 0.7840606
-0.10864066 0.17780425 0.7823984
-0.10833111 0.17943485 0.78016907
-0.10855004 0.18193905 0.78174579
-0.10858053 0.18413232 0.78196537
-0.10865271 0.18639833 0.78248519
-0.10829522 0.18792155 0.77991062
-0.10808419 0.18968774 0.77839088
-0.10830323 0.19220884 0.77996832
-0.10759801 0.19308007 0.77488959
-0.10751412 0.19505064 0.77428538
-0.10697931 0.19619098 0.77043384
-0.107303 0.19890156 0.77276498
-0.10728555 0.20098582 0.77263927
-0.10712029 0.20278959 0.77144915
-0.10685064 0.20438713 0.76950717
-0.1065752 0.20596287 0.76752353
-0.10642493 0.20777209 0.76644135
-0.10608322 0.20919788 0.76398045
-0.10574654 0.21062021 0.76155579
-0.10564165 0.21249546 0.76080036
-0.10539831 0.21408539 0.75904793
-0.10574201 0.21686968 0.76152319
-0.10570579 0.21888083 0.7612623
-0.10605824 0.22170304 0.76380056
-0.10594537 0.22355728 0.76298773
-0.10627853 0.22635703 0.76538706
-0.10607123 0.22800815 0.76389408
-0.10607751 0.23011445 0.76393932
-0.10572223 0.23142952 0.76138073
-0.10605096 0.23424138 0.76374811
-0.10586763 0.23592511 0.76242787
-0.10609879 0.23853342 0.76409256
-0.10584897 0.24006005 0.76229346
-0.10620131 0.24295436 0.76483089
-0.10599267 0.24456817 0.76332831
-0.10615537 0.24703789 0.76450002
-0.10587643 0.24847759 0.76249123
-0.10626822 0.2514936 0.76531279
-0.1061121 0.25321761 0.76418847
-0.10634666 0.25587541 0.76587766
-0.10577288 0.25658169 0.76174551
-0.10562008 0.25829476 0.76064503
-0.10512886 0.25916755 0.75710744
-0.10521916 0.261466 0.75775772
-0.10487322 0.26267537 0.75526637
-0.10513999 0.26541784 0.75718755
-0.10509423 0.26737571 0.75685805
-0.10527357 0.26990888 0.75814956
-0.10482339 0.2708227 0.75490749
-0.10444383 0.27190265 0.75217408
-0.10417152 0.27324891 0.75021297
-0.12124494 -0.23436217 0.89074409
-0.12167402 -0.23274277 0.89389634
-0.12161293 -0.23017834 0.89344752
-0.12203971 -0.22852996 0.8965829
-0.12181307 -0.22565398 0.89491791
-0.12210359 -0.22373469 0.89705223
-0.12211391 -0.22129595 0.89712805
-0.12251619 -0.21955924 0.90008348
-0.12269101 -0.21740326 0.90136778
-0.12255929 -0.21470326 0.90040016
-0.12312161 -0.2132104 0.9045313
-0.12323207 -0.21092153 0.90534276
-0.12348278 -0.20886545 0.90718466
-0.12281451 -0.20526335 0.90227509
-0.12309121 -0.2032485 0.9043079
-0.12290658 -0.20047003 0.90295154
-0.12323869 -0.19853145 0.90539145
-0.12276291 -0.19529428 0.90189606
-0.12314747 -0.19342759 0.90472126
-0.12292582 -0.19060546 0.90309286
-0.12310841 -0.18841092 0.90443432
-0.12280031 -0.18546791 0.90217078
-0.12329763 -0.18373758 0.90582448
-0.12325701 -0.18119639 0.90552604
-0.12363802 -0.17926817 0.90832514
-0.12323336 -0.17620125 0.90535223
-0.12353419 -0.17414515 0.90756238
-0.12310901 -0.1710681 0.90443873
-0.12385318 -0.16960953 0.90990591
-0.12365238 -0.16684593 0.90843064
-0.12423393 -0.16513032 0.9127031
-0.12386092 -0.16214171 0.90996271
-0.12429789 -0.16021211 0.91317296
-0.12400579 -0.1573399 0.91102707
-0.12430561 -0.15521857 0.91322976
-0.12401491 -0.15235965 0.91109401
-0.12435666 -0.15027674 0.9136048
-0.12421627 -0.1476071 0.91257334
-0.12454539 -0.14549161 0.91499126
-0.12384959 -0.14218622 0.90987945
-0.1237383 -0.13956812 0.90906191
-0.12324754 -0.13653412 0.90545648
