# .PCD v0.7 - Point Cloud Data file format
VERSION 0.7
FIELDS x y z
SIZE 4 4 4
TYPE F F F
COUNT 1 1 1
WIDTH 1413
HEIGHT 1
VIEWPOINT 0 0 0 1 0 0 0
POINTS 1413
DATA ascii
-0.23341809 0.38771397 0.9192825
-0.23193495 0.38775277 0.91344136
-0.2319396 0.39026293 0.91345966
-0.23138736 0.39183018 0.91128474
-0.23161416 0.39471313 0.91217798
-0.23084222 0.39588812 0.90913779
-0.23082906 0.39835599 0.90908599
-0.23038611 0.40007716 0.90734148
-0.25018191 -0.10926521 0.99605066
-0.24916044 -0.10610159 0.99198383
-0.24861187 -0.10315646 0.98979986
-0.24768645 -0.10007106 0.98611546
-0.24678048 -0.097013481 0.98250854
-0.24589418 -0.093983181 0.97897989
-0.24667946 -0.091592878 0.98210633
-0.24673274 -0.088921644 0.98231846
-0.24735981 -0.086449765 0.984815
-0.24780335 -0.083902083 0.98658085
-0.24815366 -0.081314169 0.98797554
-0.24783595 -0.078507006 0.98671067
-0.24725367 -0.075625859 0.98439246
-0.24647132 -0.072698392 0.98127764
-0.24692976 -0.070140436 0.98310286
-0.24660549 -0.067358688 0.98181182
-0.24639866 -0.06461481 0.98098838
-0.24485464 -0.061539378 0.97484118
-0.24445407 -0.058772534 0.9732464
-0.24443932 -0.056102972 0.97318763
-0.24503374 -0.05356691 0.97555423
-0.24442442 -0.050767854 0.97312832
-0.24403961 -0.048026282 0.9715963
-0.24336413 -0.045239061 0.96890694
-0.24430741 -0.042749837 0.97266251
-0.24440561 -0.040101383 0.97305346
-0.2453035 -0.037573267 0.97662818
-0.24483986 -0.03483187 0.97478235
-0.24567389 -0.032271046 0.97810286
-0.24521576 -0.029536391 0.9762789
-0.24598923 -0.026946642 0.97935832
-0.24561255 -0.024226569 0.9778586
-0.24630773 -0.021608753 0.98062634
-0.24570902 -0.01887637 0.9782427
-0.24636295 -0.016239615 0.98084623
-0.24640851 -0.013555131 0.9810276
-0.24727215 -0.010905734 0.98446602
-0.24723172 -0.0082074841 0.98430502
-0.24846753 -0.0055385656 0.98922521
-0.24879144 -0.0028323079 0.99051476
-0.25004151 -0.00011942765 0.99549174
-0.2496603 0.0026037083 0.99397397
-0.2504594 0.0053437115 0.99715543
-0.25004348 0.0080619706 0.99549955
-0.25106046 0.010832984 0.99954838
-0.25158361 0.013599489 1.0016313
-0.25262192 0.01641087 1.0057651
-0.25361106 0.019241171 1.0097032
-0.25650799 0.022258598 1.0212368
-0.26086298 0.025481641 1.0385753
-0.26323962 0.028584855 1.0480374
-0.26352027 0.03148945 1.0491548
-0.26357511 0.03437072 1.049373
-0.26427355 0.037344132 1.0521538
-0.2647866 0.04030456 1.0541964
-0.26518315 0.043257181 1.0557752
-0.265066 0.046129044 1.0553087
-0.26494429 0.048997518 1.0548242
-0.26434815 0.051770419 1.0524508
-0.2646485 0.054715663 1.0536466
-0.26451349 0.0575727 1.053109
-0.26471046 0.060502671 1.0538932
-0.2639156 0.063199431 1.0507287
-0.26442581 0.066205606 1.05276
-0.2641719 0.069023266 1.0517491
-0.26458201 0.072016113 1.0533818
-0.26377651 0.074673779 1.050175
-0.26389927 0.077586785 1.0506636
-0.26352382 0.080350555 1.0491688
-0.26406786 0.083396532 1.0513349
-0.26350039 0.086091228 1.0490756
-0.26354325 0.088979594 1.0492462
-0.26297253 0.091655061 1.0469741
-0.2628099 0.094464742 1.0463265
-0.26231685 0.097148515 1.0443636
-0.26271641 0.10016184 1.0459543
-0.26285109 0.10308001 1.0464906
-0.2631416 0.10606392 1.0476471
-0.26230094 0.1085859 1.0443002
-0.262344 0.11146501 1.0444716
-0.26189882 0.1141323 1.0426992
-0.2620441 0.11705364 1.0432776
-0.2617825 0.11979194 1.0422361
-0.26184627 0.12267698 1.04249
-0.26177475 0.12549858 1.0422053
-0.26178071 0.12835658 1.0422291
-0.26139688 0.13101932 1.0407009
-0.26166826 0.13400926 1.0417813
-0.26159048 0.13682251 1.0414716
-0.26204193 0.13991664 1.043269
-0.26166832 0.14257106 1.0417815
-0.26191965 0.14556466 1.0427822
-0.26166308 0.14827593 1.0417607
-0.26207492 0.15136768 1.0434004
-0.26157582 0.15393232 1.0414133
-0.26176873 0.15690087 1.0421814
-0.26147211 0.15957484 1.0410004
-0.26190391 0.16269486 1.0427195
-0.26125732 0.16514264 1.0401453
-0.26143247 0.16810469 1.0408425
-0.2609202 0.17062107 1.0388031
-0.26130623 0.17372346 1.0403399
-0.26085031 0.17626537 1.0385249
-0.26098683 0.17920409 1.0390683
-0.26023182 0.18152393 1.0360625
-0.26018178 0.18432674 1.0358632
-0.25969574 0.18681481 1.0339282
-0.25970301 0.18965252 1.033957
-0.25920996 0.19211957 1.0319941
-0.25931069 0.19502243 1.0323951
-0.25913969 0.19772018 1.0317143
-0.25921676 0.20060617 1.0320212
-0.25823277 0.20266111 1.0281036
-0.25808901 0.20536317 1.0275313
-0.25783226 0.20797095 1.026509
-0.2569873 0.21009225 1.023145
-0.25719303 0.21306556 1.023964
-0.25646955 0.21526344 1.0210837
-0.25673053 0.21828255 1.0221227
-0.25589299 0.22036137 1.0187882
-0.25596437 0.22321455 1.0190724
-0.2550998 0.22524288 1.0156302
-0.25491863 0.22786322 1.014909
-0.25365597 0.2295011 1.009882
-0.25344682 0.23207612 1.0090493
-0.2529369 0.23436789 1.0070192
-0.25344414 0.2376021 1.0090386
-0.25277385 0.23973063 1.0063699
-0.25261888 0.24233887 1.0057529
-0.25133547 0.24384893 1.0006434
-0.2515519 0.24680249 1.001505
-0.25103071 0.24902903 0.99942994
-0.25201601 0.25275514 1.0033528
-0.25118026 0.25465646 1.0000254
-0.25091475 0.25712392 0.99896836
-0.24991845 0.25882873 0.99500173
-0.24953218 0.26115024 0.99346387
-0.24888559 0.26318803 0.99088961
-0.24801791 0.26497555 0.9874351
-0.24684054 0.26640987 0.98274761
-0.24641034 0.26863307 0.98103487
-0.24570096 0.27053952 0.97821063
-0.24550012 0.27299595 0.97741103
-0.24426113 0.27428225 0.97247821
-0.24439767 0.27710113 0.97302181
-0.24428032 0.27963236 0.97255462
-0.24453363 0.28258935 0.97356313
-0.2435165 0.2840699 0.96951365
-0.24347545 0.28667748 0.96935022
-0.24208309 0.28767836 0.96380675
-0.24195908 0.29016995 0.96331304
-0.24078406 0.29138696 0.95863497
-0.2410921 0.29438928 0.95986134
-0.24007866 0.29577023 0.95582652
-0.24116136 0.29973435 0.96013707
-0.24177802 0.30313775 0.96259218
-0.24319752 0.30756998 0.96824366
-0.24259506 0.30945396 0.96584511
-0.24271272 0.31225121 0.96631354
-0.24131642 0.31308681 0.96075445
-0.2413678 0.31578597 0.96095902
-0.24094565 0.31786159 0.95927829
-0.24161744 0.32138303 0.96195287
-0.24047467 0.3224858 0.95740318
-0.24042848 0.32504612 0.95721924
-0.24010615 0.32722908 0.95593596
-0.2406345 0.33057368 0.95803952
-0.23958369 0.33174315 0.95385587
-0.23937654 0.33406714 0.95303118
-0.23888668 0.33598894 0.95108092
-0.23906533 0.33884761 0.95179218
-0.23827392 0.34032464 0.9486413
-0.23845318 0.3431814 0.94935501
-0.23832375 0.34559441 0.94883966
-0.23857026 0.34855387 0.94982111
-0.23790602 0.35017818 0.94717658
-0.23810473 0.35306761 0.94796771
-0.23810039 0.35565802 0.94795042
-0.23823282 0.35845417 0.94847769
-0.23695502 0.35911593 0.94339037
-0.23610459 0.36040217 0.94000453
-0.23556963 0.36215484 0.93787467
-0.23580177 0.36508352 0.9387989
-0.23534109 0.36693704 0.93696481
-0.2352608 0.36937776 0.93664515
-0.23410879 0.37012234 0.93205863
-0.23399027 0.37248704 0.93158674
-0.23303185 0.37350294 0.92777103
-0.23308194 0.37612534 0.92797041
-0.23185328 0.3766714 0.92307878
-0.23158717 0.3787649 0.9220193
-0.23085013 0.38007724 0.91908491
-0.231416 0.38353291 0.92133784
-0.23095809 0.38529295 0.91951472
-0.2315481 0.38880262 0.92186373
-0.23008341 0.38885266 0.91603237
-0.22966807 0.39065561 0.91437876
-0.22861415 0.39135638 0.91018283
-0.22876959 0.39411756 0.91080165
-0.22782458 0.39497432 0.90703928
-0.22784743 0.397499 0.90713024
-0.22724704 0.39893004 0.90473992
-0.24509197 -0.10822256 0.98654598
-0.24392156 -0.10501606 0.98183483
-0.24396753 -0.10234564 0.9820199
-0.24325442 -0.099364147 0.97914946
-0.24372596 -0.096869223 0.98104751
-0.24296559 -0.093887851 0.97798687
-0.24349919 -0.091409005 0.98013473
-0.24330638 -0.088653713 0.97935861
-0.24391147 -0.086184599 0.98179424
-0.24419303 -0.083591394 0.98292756
-0.24482851 -0.081109233 0.98548549
-0.24429472 -0.078238569 0.98333687
-0.24432045 -0.075552717 0.98344046
-0.24314575 -0.072508313 0.97871202
-0.24372961 -0.069994837 0.98106217
-0.24307825 -0.067127384 0.97844034
-0.24318294 -0.064474739 0.97886175
-0.2415732 -0.061384145 0.97238219
-0.24131203 -0.05865686 0.97133094
-0.24086657 -0.055892568 0.96953785
-0.24150321 -0.053377267 0.9721005
-0.24099995 -0.050608553 0.97007477
-0.24134561 -0.048019849 0.97146612
-0.24085337 -0.04526604 0.96948475
-0.24179351 -0.042776495 0.97326905
-0.24164137 -0.040085025 0.97265661
-0.24269181 -0.037583139 0.97688484
-0.24230795 -0.034851789 0.97533971
-0.2430377 -0.032276798 0.97827715
-0.24277748 -0.029565156 0.97722971
-0.24356547 -0.026975343 0.98040152
-0.24332136 -0.024265226 0.97941893
-0.24393618 -0.02163668 0.98189372
-0.24324937 -0.018893475 0.97912914
-0.24392256 -0.016256051 0.98183888
-0.24386005 -0.013562864 0.98158723
-0.24521036 -0.010934055 0.98702258
-0.24502277 -0.0082238475 0.98626745
-0.24622682 -0.0055491403 0.99111396
-0.24616121 -0.0028332663 0.99084991
-0.24711011 -0.000119329 0.99466944
-0.24676579 0.0026018997 0.99328345
-0.24789031 0.0053472188 0.99780989
-0.24775244 0.0080761863 0.99725497
-0.24896906 0.010861203 1.0021521
-0.24963526 0.01364297 1.0048337
-0.25093919 0.016481314 1.0100822
-0.25183177 0.019316861 1.0136751
-0.25407127 0.022290261 1.0226895
-0.25830063 0.02550957 1.0397136
-0.26062632 0.028613156 1.049075
-0.26144832 0.03158636 1.0523837
-0.26146525 0.03447156 1.0524518
-0.26214194 0.037451386 1.0551757
-0.26222339 0.040354535 1.0555035
-0.26266813 0.043319393 1.0572937
-0.26248688 0.046183921 1.0565641
-0.26289818 0.049155239 1.0582197
-0.26208842 0.05189386 1.0549603
-0.26234093 0.054836664 1.0559766
-0.2620196 0.057658758 1.0546832
-0.26244292 0.060645849 1.0563872
-0.26155081 0.063323796 1.0527962
-0.26201051 0.066324249 1.0546466
-0.26172325 0.069137536 1.0534903
-0.26194456 0.072084434 1.0543811
-0.26097012 0.074693963 1.0504588
-0.26127902 0.077663489 1.0517023
-0.26098052 0.080452554 1.0505006
-0.26147592 0.083488539 1.0524948
-0.26068389 0.086110197 1.0493068
-0.26080272 0.089025289 1.049785
-0.26014999 0.091671132 1.0471576
-0.26018566 0.094552733 1.0473012
-0.25963077 0.097214006 1.0450677
-0.26009941 0.10025758 1.046954
-0.26002109 0.10309462 1.0466388
-0.2604633 0.10614204 1.0484188
-0.2597664 0.10872248 1.0456136
-0.25991383 0.11165022 1.0462071
-0.25958756 0.11437251 1.0448937
-0.25998506 0.11741448 1.0464938
-0.25923541 0.11993448 1.0434762
-0.25916779 0.12276101 1.0432041
-0.25911301 0.12559229 1.0429837
-0.25909054 0.12843835 1.0428932
-0.25852683 0.13100967 1.0406241
-0.25856569 0.13388053 1.0407805
-0.25848159 0.13668725 1.040442
-0.25903949 0.13983867 1.0426877
-0.25911626 0.14273736 1.0429966
-0.25977096 0.14596248 1.045632
-0.25951043 0.14867768 1.0445833
-0.25987989 0.15175503 1.0460705
-0.25927487 0.15426072 1.0436351
-0.25953317 0.15727624 1.0446748
-0.25901681 0.15981948 1.0425963
-0.25918546 0.16278157 1.0432752
-0.25852641 0.1652184 1.0406225
-0.25864893 0.16814879 1.0411155
-0.25830069 0.17077066 1.0397139
-0.25844994 0.17371923 1.0403146
-0.25787067 0.17617339 1.0379829
-0.25785106 0.17900328 1.037904
-0.25715822 0.18135795 1.0351151
-0.25737524 0.18434907 1.0359887
-0.25710091 0.18698761 1.0348845
-0.25733638 0.18999648 1.0358323
-0.25677112 0.19241051 1.0335569
-0.25678515 0.19525258 1.0336134
-0.25632855 0.19773193 1.0317756
-0.25638029 0.20059891 1.0319839
-0.25557244 0.202785 1.0287321
-0.25560004 0.20562537 1.0288432
-0.25473258 0.20773642 1.0253514
-0.253961 0.20990758 1.0222456
-0.25438744 0.21306516 1.0239621
-0.25407344 0.21560383 1.0226983
-0.25421122 0.21852389 1.0232528
-0.25321165 0.22045679 1.0192294
-0.25317627 0.22321773 1.019087
-0.25219008 0.22512914 1.0151174
-0.25190625 0.2276535 1.0139749
-0.25089774 0.2295087 1.0099154
-0.25062776 0.23202537 1.0088286
-0.24998461 0.23418653 1.0062399
-0.24995032 0.23691058 1.0061018
-0.24890855 0.23866786 1.0019085
-0.2485619 0.24107634 1.0005132
-0.24751139 0.24278675 0.99628466
-0.24774903 0.24575175 0.9972412
-0.24717768 0.2479106 0.99494141
-0.24762945 0.25109431 0.99675989
-0.24714291 0.25332618 0.99480146
-0.24731149 0.25622606 0.99548
-0.24709187 0.25872317 0.994596
-0.24678993 0.26112837 0.99338067
-0.24603698 0.26304469 0.99034983
-0.24478386 0.26440415 0.98530579
-0.24347124 0.26567104 0.98002219
-0.24291463 0.26774228 0.97778177
-0.24177572 0.26915303 0.9731974
-0.24158575 0.27160549 0.97243273
-0.24064989 0.27320695 0.96866572
-0.24135073 0.27666393 0.97148669
-0.24124126 0.27919862 0.97104609
-0.24142702 0.28207579 0.97179383
-0.24048311 0.28362471 0.96799433
-0.24035946 0.2861293 0.96749663
-0.23900315 0.28715017 0.96203721
-0.23869674 0.28941414 0.96080387
-0.23777094 0.29091349 0.95707732
-0.23824064 0.29411528 0.95896798
-0.23733693 0.29561672 0.95533037
-0.23821874 0.29934186 0.95887983
-0.23868611 0.3025611 0.96076107
-0.2397234 0.30651939 0.96493638
-0.23886789 0.30805948 0.96149278
-0.23878963 0.31059167 0.96117777
-0.23792112 0.31208551 0.95768183
-0.23812982 0.31498513 0.9585219
-0.23780009 0.31717116 0.95719469
-0.23841937 0.32062617 0.95968741
-0.23764399 0.32220393 0.95656633
-0.23767309 0.32486418 0.95668346
-0.23709464 0.32668793 0.95435506
-0.23739167 0.32971489 0.95555067
-0.23641038 0.33095884 0.95160079
-0.23661555 0.33385524 0.95242667
-0.2360815 0.33570492 0.95027697
-0.23625381 0.33855513 0.95097059
-0.23555525 0.34015149 0.94815868
-0.23567492 0.34292307 0.94864041
-0.23553205 0.34531236 0.94806528
-0.23558892 0.34799358 0.94829428
-0.23501588 0.34973863 0.94598764
-0.23502588 0.35234511 0.94602787
-0.23494011 0.3548072 0.94568264
-0.23477128 0.35714105 0.94500309
-0.23378585 0.35821989 0.94103652
-0.23315084 0.3598178 0.93848044
-0.23292053 0.36203077 0.93755341
-0.23314773 0.3649548 0.93846792
-0.2327524 0.36690253 0.93687665
-0.23295341 0.36978814 0.93768579
-0.23179945 0.3705124 0.93304086
-0.23171034 0.37292501 0.93268216
-0.2305094 0.37353396 0.9278481
-0.23047127 0.37601355 0.92769462
-0.22926512 0.37657383 0.92283964
-0.22908384 0.37880212 0.9221099
-0.22870433 0.38069651 0.92058235
-0.22905536 0.38380659 0.92199528
-0.22845666 0.38532257 0.91958541
-0.22848535 0.38789043 0.91970086
-0.22725435 0.38830653 0.91474587
-0.22691265 0.39022481 0.91337043
-0.22602464 0.39119008 0.90979606
-0.22607179 0.39376456 0.90998584
-0.22513708 0.39461905 0.90622342
-0.22499755 0.3968555 0.90566176
-0.22429794 0.39809483 0.90284568
-0.24191336 -0.10801003 0.98460859
-0.24100155 -0.10491579 0.98089743
-0.24131623 -0.10236214 0.98217821
-0.24063303 -0.099389322 0.97939754
-0.24056926 -0.096680678 0.97913802
-0.2399677 -0.093763307 0.97668958
-0.24000357 -0.091101326 0.97683561
-0.24010471 -0.088462584 0.97724724
-0.24056256 -0.085949026 0.97911072
-0.24100377 -0.083419517 0.98090649
-0.24091978 -0.080704227 0.98056465
-0.24023551 -0.077796407 0.97777957
-0.24010514 -0.075077057 0.97724897
-0.23957732 -0.07224077 0.9751007
-0.24001291 -0.069696002 0.97687364
-0.23937124 -0.066840723 0.97426194
-0.2394049 -0.064180784 0.97439897
-0.23798865 -0.061147574 0.96863467
-0.23801155 -0.058499668 0.96872789
-0.23732044 -0.055683717 0.96591502
-0.2380237 -0.053194795 0.96877736
-0.23779555 -0.050492421 0.96784872
-0.23860009 -0.048002899 0.97112328
-0.23823595 -0.045273345 0.96964121
-0.23904096 -0.042761054 0.97291768
-0.23911053 -0.040107455 0.97320086
-0.24008325 -0.037593719 0.97715986
-0.23991635 -0.034892555 0.9764806
-0.24045891 -0.03229038 0.97868884
-0.24036184 -0.029597348 0.97829378
-0.24124584 -0.027016345 0.98189169
-0.24082071 -0.02428362 0.98016137
-0.2414304 -0.021653188 0.98264289
-0.24066155 -0.018900894 0.97951359
-0.24177778 -0.016292771 0.98405677
-0.24157059 -0.013585334 0.98321348
-0.24335141 -0.010972152 0.99046159
-0.24333934 -0.0082584107 0.99041247
-0.24492544 -0.0055813566 0.99686801
-0.24425928 -0.002842722 0.99415672
-0.24468248 -0.00011947412 0.99587911
-0.24420111 0.0026035667 0.99391991
-0.24546935 0.0053540347 0.99908179
-0.24552402 0.0080927825 0.99930429
-0.24662377 0.01087885 1.0037804
-0.24731663 0.013666957 1.0066004
-0.24837139 0.016494548 1.0108933
-0.24930255 0.019336073 1.0146832
-0.25138751 0.022300716 1.0231692
-0.25538668 0.02550301 1.0394462
-0.25769478 0.028606756 1.0488404
-0.2590231 0.031642281 1.0542468
-0.25922406 0.034557141 1.0550647
-0.25996941 0.037555121 1.0580983
-0.2598975 0.040442552 1.0578057
-0.26050439 0.043441579 1.0602758
-0.26022604 0.046296641 1.0591428
-0.26047269 0.04924475 1.0601467
-0.25962615 0.051979497 1.0567012
-0.25981876 0.054915 1.0574851
-0.25940728 0.057720385 1.0558105
-0.25994486 0.060738347 1.0579984
-0.25923476 0.063462853 1.0551082
-0.25987011 0.066515908 1.0576942
-0.25923878 0.069244787 1.0551245
-0.25920001 0.072124474 1.0549668
-0.25844115 0.074794888 1.0518781
-0.25907496 0.077866971 1.0544578
-0.25884429 0.080683708 1.0535189
-0.25889125 0.083584949 1.0537101
-0.25808153 0.086201094 1.0504144
-0.25821331 0.089124158 1.0509509
-0.25761011 0.09178827 1.0484958
-0.25760266 0.094657838 1.0484654
-0.25697207 0.097291335 1.0458989
-0.25742927 0.10033473 1.0477598
-0.25722116 0.10312159 1.0469127
-0.25759289 0.10614274 1.0484257
-0.25703925 0.10878056 1.0461723
-0.25711155 0.11167791 1.0464666
-0.25672337 0.11437174 1.0448867
-0.25690293 0.11731616 1.0456175
-0.25647041 0.11997826 1.0438571
-0.25651622 0.1228598 1.0440435
-0.25591534 0.12542541 1.0415978
-0.25571394 0.12817788 1.0407782
-0.25561258 0.13097711 1.0403656
-0.255775 0.13391219 1.0410267
-0.25538731 0.13655676 1.0394487
-0.25610593 0.13979656 1.0423737
-0.25616381 0.14268433 1.0426092
-0.25714856 0.14610001 1.0466173
-0.2568261 0.14878038 1.0453048
-0.25735649 0.15195712 1.0474635
-0.25662637 0.15438737 1.0444919
-0.25709924 0.15753847 1.0464165
-0.25661066 0.16010024 1.0444279
-0.25698715 0.16320051 1.0459603
-0.25599498 0.16542472 1.041922
-0.25591907 0.16822915 1.0416131
-0.25548655 0.17079346 1.0398526
-0.25583601 0.17387961 1.041275
-0.25491297 0.1760945 1.0375181
-0.25503987 0.17902583 1.0380347
-0.2544204 0.18142773 1.0355134
-0.25527948 0.18488669 1.0390099
-0.25482598 0.18739949 1.0371641
-0.25490299 0.19029826 1.0374775
-0.25419721 0.19260561 1.0346049
-0.25401589 0.19530047 1.033867
-0.25335947 0.1976207 1.0311953
-0.25316659 0.20029302 1.0304102
-0.25264713 0.20269904 1.028296
-0.25268811 0.20554934 1.0284628
-0.25185809 0.20768234 1.0250845
-0.25102326 0.20979281 1.0216867
-0.25148541 0.21298309 1.0235677
-0.25135046 0.21567133 1.0230185
-0.25142604 0.21853952 1.023326
-0.25069869 0.22070254 1.0203656
-0.25029209 0.22313532 1.0187107
-0.2493751 0.22509834 1.0149785
-0.24884991 0.22739892 1.012841
-0.24806476 0.22944734 1.0096453
-0.2478368 0.23199981 1.0087175
-0.24695016 0.23392329 1.0051088
-0.24674936 0.23648429 1.0042915
-0.24553028 0.23805356 0.99932975
-0.24541111 0.24067432 0.99884474
-0.24449213 0.24249913 0.99510443
-0.24500632 0.24574091 0.99719721
-0.24423663 0.24769211 0.99406451
-0.2446159 0.25080419 0.99560815
-0.24411148 0.25300881 0.99355513
-0.24452081 0.25615942 0.99522114
-0.24390182 0.25823045 0.99270177
-0.24343751 0.26045316 0.99081206
-0.24248715 0.26214004 0.98694396
-0.24178006 0.26407146 0.98406607
-0.24057002 0.26543218 0.97914112
-0.24016802 0.26766646 0.97750491
-0.23908329 0.26912329 0.97308993
-0.2389318 0.27161685 0.97247338
-0.23803444 0.27325076 0.96882105
-0.23849557 0.27643931 0.97069788
-0.23815133 0.27869564 0.96929681
-0.23823689 0.28145206 0.96964502
-0.23744753 0.28316703 0.96643227
-0.23750061 0.28587842 0.96664828
-0.23635203 0.28713116 0.96197349
-0.23599993 0.28933477 0.96054041
-0.23495996 0.29067954 0.95630765
-0.23520896 0.29361019 0.95732111
-0.23423634 0.29500777 0.95336246
-0.23495877 0.29853737 0.95630282
-0.23510158 0.30134016 0.95688403
-0.23619406 0.30537397 0.96133053
-0.23561881 0.30725735 0.95898926
-0.23580018 0.310123 0.95972741
-0.23528007 0.31206226 0.95761049
-0.23575 0.31531414 0.9595232
-0.23532967 0.31737587 0.95781243
-0.23568699 0.32048562 0.95926672
-0.23482792 0.3219358 0.95577025
-0.23502675 0.32482886 0.95657945
-0.23412631 0.32619488 0.95291466
-0.23396483 0.32857856 0.95225739
-0.23301376 0.32984093 0.94838643
-0.23348862 0.33311647 0.95031917
-0.23278838 0.33471301 0.94746912
-0.23312326 0.3377938 0.94883209
-0.23231551 0.33921364 0.94554448
-0.2328472 0.34258622 0.94770855
-0.2322637 0.34431741 0.94533366
-0.23260882 0.34742257 0.9467383
-0.23207124 0.34920722 0.94455028
-0.23229666 0.35213649 0.94546777
-0.23172374 0.35385171 0.94313598
-0.23155199 0.35617122 0.94243693
-0.23080236 0.35759154 0.93938583
-0.23080282 0.36016569 0.93938774
-0.23043907 0.36216739 0.93790722
-0.23034184 0.36458287 0.9375115
-0.22962937 0.36601549 0.93461168
-0.22972108 0.36872306 0.93498498
-0.22870502 0.3696422 0.93084949
-0.22887595 0.37247041 0.9315452
-0.22803594 0.37364596 0.92812628
-0.22812533 0.37633598 0.9284901
-0.22681881 0.37670964 0.92317247
-0.22684091 0.37927559 0.92326242
-0.22664808 0.38148025 0.92247754
-0.22707351 0.38472813 0.92420906
-0.22574553 0.38499519 0.91880411
-0.22530599 0.3867577 0.91701514
-0.2241511 0.38727447 0.91231465
-0.22436529 0.3901462 0.91318643
-0.22363314 0.39136657 0.9102065
-0.22373594 0.39404109 0.91062492
-0.22268268 0.39466897 0.90633804
-0.22232752 0.39651841 0.9048925
-0.22175872 0.39797655 0.90257746
-0.23910439 -0.10795961 0.98414892
-0.23817548 -0.10485463 0.98032558
-0.23853828 -0.10232469 0.98181885
-0.23792508 -0.099378914 0.97929496
-0.23801158 -0.096731327 0.97965097
-0.23731337 -0.093771711 0.97677714
-0.23725082 -0.091071859 0.9765197
-0.23691471 -0.088271499 0.97513628
-0.23749258 -0.085808933 0.97751474
-0.23743962 -0.08311253 0.97729677
-0.23739624 -0.080420576 0.97711825
-0.2363015 -0.077385277 0.97261232
-0.23635159 -0.074736685 0.97281849
-0.23595084 -0.071949489 0.97116899
-0.23643109 -0.069430031 0.97314572
-0.23597334 -0.066634879 0.97126162
-0.23637213 -0.06408225 0.97290301
-0.23544282 -0.061175562 0.969078
-0.23570234 -0.058585316 0.97014618
-0.23466443 -0.055681359 0.96587414
-0.23546132 -0.053215489 0.96915418
-0.23502278 -0.050466355 0.96734911
-0.23613808 -0.048043251 0.97193962
-0.23585057 -0.04532541 0.97075629
-0.23672405 -0.042824075 0.97435153
-0.23642662 -0.040104426 0.97312731
-0.23733918 -0.037583087 0.97688341
-0.23730262 -0.034901571 0.97673285
-0.23828337 -0.032359034 0.98076963
-0.23824847 -0.029667906 0.98062599
-0.23922208 -0.027091781 0.98463333
-0.23880324 -0.024351703 0.98290938
-0.23939791 -0.021712998 0.98535711
-0.23856318 -0.018947354 0.98192132
-0.23973581 -0.016337328 0.98674786
-0.23951569 -0.013621651 0.98584187
-0.24136245 -0.01100518 0.99344307
-0.24141555 -0.0082855029 0.99366164
-0.24289778 -0.0055975625 0.99976248
-0.24186511 -0.0028465972 0.99551201
-0.24232344 -0.0001196564 0.9973985
-0.2418199 0.0026072499 0.99532592
-0.24335442 0.0053677545 1.001642
-0.24339242 0.008112981 1.0017984
-0.24425945 0.010896047 1.005367
-0.24475986 0.013678176 1.0074267
-0.24526855 0.016472148 1.0095205
-0.24650517 0.019334685 1.0146104
-0.24850388 0.022293476 1.022837
-0.25236607 0.025485527 1.0387337
-0.25449565 0.028570171 1.0474991
-0.25611269 0.03163952 1.0541548
-0.25678021 0.034617331 1.0569023
-0.25776368 0.037656344 1.0609503
-0.25748727 0.040519282 1.0598125
-0.25773993 0.043465205 1.0608524
-0.25733227 0.046298027 1.0591745
-0.25744575 0.049221288 1.0596416
-0.25706813 0.052047685 1.0580873
-0.25731295 0.054998603 1.059095
-0.25688502 0.057803661 1.0573337
-0.25722352 0.060780168 1.0587269
-0.25665584 0.063539974 1.0563904
-0.25752515 0.066658922 1.0599684
-0.25698692 0.06941729 1.0577531
-0.25694817 0.072304055 1.0575936
-0.25599003 0.07492087 1.0536499
-0.25652131 0.077968791 1.0558367
-0.25624648 0.080774575 1.0547054
-0.25631931 0.083687678 1.0550052
-0.25573421 0.086380199 1.0525969
-0.25602791 0.089366265 1.0538058
-0.25556031 0.092084646 1.0518812
-0.25538245 0.094900139 1.0511491
-0.25453687 0.097455963 1.0476687
-0.25475708 0.10041281 1.048575
-0.25439262 0.10313758 1.047075
-0.25479263 0.10617268 1.0487214
-0.25454804 0.10894094 1.0477147
-0.2547234 0.11188815 1.0484365
-0.25404572 0.11445498 1.0456471
-0.25401533 0.11730546 1.0455221
-0.25356373 0.11995597 1.0436633
-0.25384182 0.12294975 1.0448079
-0.25317585 0.12548189 1.0420668
-0.25299227 0.12824352 1.0413111
-0.25249109 0.13083646 1.0392483
-0.25317958 0.13404797 1.0420822
-0.25342742 0.13703674 1.0431023
-0.25375846 0.14007701 1.0444648
-0.25320339 0.14262562 1.0421802
-0.25364751 0.1457358 1.0440081
-0.25333288 0.1484115 1.0427132
-0.25391334 0.15161459 1.0451024
-0.25352827 0.15424332 1.0435174
-0.25400466 0.1573972 1.0454781
-0.2535238 0.15995786 1.043499
-0.25413215 0.16320716 1.0460029
-0.25327703 0.16551383 1.0424832
-0.25316119 0.16829269 1.0420065
-0.25267324 0.17081735 1.0399981
-0.25294057 0.1738501 1.0410984
-0.25219205 0.17617926 1.0380175
-0.25225002 0.17906401 1.038256
-0.25177416 0.18156511 1.0362974
-0.25231129 0.18479742 1.0385083
-0.25186846 0.18731304 1.0366856
-0.25209305 0.19032256 1.0376101
-0.25168091 0.19284926 1.0359137
-0.25131571 0.19540314 1.0344105
-0.25056902 0.1976479 1.0313371
-0.25034371 0.20029294 1.0304098
-0.25012502 0.20293827 1.0295097
-0.24969777 0.2054071 1.0277511
-0.24884057 0.20750776 1.0242229
-0.24797091 0.20957857 1.0206434
-0.24837004 0.21271643 1.0222862
-0.24858135 0.2157003 1.0231559
-0.24885209 0.21874118 1.0242703
-0.24783224 0.22063917 1.0200726
-0.24722438 0.22288559 1.0175706
-0.24615018 0.22469266 1.0131493
-0.24593374 0.22726813 1.0122584
-0.24532232 0.22946924 1.0097418
-0.24485175 0.23178995 1.007805
-0.24402045 0.23375444 1.0043833
-0.24371417 0.23620906 1.0031227
-0.24307925 0.23833457 1.0005094
-0.24283211 0.24083032 0.99949217
-0.2418661 0.24259944 0.99551606
-0.24173787 0.24519657 0.99498832
-0.24099411 0.24715951 0.99192703
-0.24116267 0.25005165 0.99262083
-0.24089968 0.25249523 0.99153835
-0.24137071 0.25571051 0.99347705
-0.24077848 0.25779802 0.99103945
-0.24057151 0.26028901 0.99018759
-0.23972714 0.26207846 0.98671216
-0.23920871 0.26420891 0.98457831
-0.23789245 0.26543748 0.97916061
-0.23761518 0.26780736 0.97801942
-0.23661619 0.26934943 0.97390759
-0.23644981 0.27182612 0.97322273
-0.23551279 0.27340448 0.96936601
-0.23581725 0.27641687 0.97061914
-0.23517779 0.27831909 0.96798712
-0.23510818 0.28088769 0.96770066
-0.23455146 0.28286725 0.96540916
-0.234478 0.28542253 0.96510679
-0.23345685 0.28681189 0.96090376
-0.23291641 0.28877419 0.95867938
-0.23233719 0.29067579 0.95629531
-0.23239134 0.29336393 0.95651817
-0.23180857 0.29524201 0.9541195
-0.23190264 0.29797667 0.9545067
-0.2321433 0.30090341 0.95549721
-0.23292005 0.30453655 0.95869434
-0.23286682 0.30709267 0.95847523
-0.23269267 0.30948675 0.95775843
-0.23207599 0.31128332 0.95522016
-0.23242955 0.31437832 0.95667541
-0.23228155 0.31679726 0.95606625
-0.23264472 0.31991577 0.95756108
-0.23179121 0.3213557 0.95404804
-0.23186792 0.3240765 0.95436382
-0.2311509 0.32568067 0.9514125
-0.23080432 0.32779482 0.94998604
-0.23004766 0.32931411 0.94687164
-0.23004064 0.33189788 0.94684273
-0.22977124 0.33410001 0.9457339
-0.22969575 0.33658019 0.94542319
-0.22916371 0.33838451 0.94323331
-0.2296454 0.34168518 0.94521594
-0.22918905 0.34359041 0.94333762
-0.22960645 0.3468051 0.9450556
-0.22898136 0.34844285 0.94248277
-0.22922447 0.35139742 0.94348341
-0.22849585 0.35285687 0.9404844
-0.22830287 0.35513312 0.93969011
-0.22773166 0.35681239 0.93733901
-0.22789228 0.35963365 0.93800014
-0.22742708 0.3614639 0.93608534
-0.22728825 0.36380604 0.93551391
-0.22671624 0.36544681 0.93315953
-0.22693086 0.36835155 0.93404293
-0.22601219 0.36940876 0.93026167
-0.22567524 0.37140271 0.92887485
-0.22495079 0.37274688 0.92589301
-0.22496116 0.37530062 0.92593569
-0.22416392 0.37649816 0.92265427
-0.22410627 0.37892827 0.92241699
-0.22423157 0.38166848 0.92293274
-0.22418295 0.38411349 0.92273259
-0.22253944 0.38380679 0.91596794
-0.22166331 0.38479513 0.9123618
-0.22137322 0.38678765 0.9111678
-0.22180709 0.39004672 0.91295362
-0.22155385 0.39209956 0.91191125
-0.22112966 0.39384222 0.91016531
-0.22035424 0.39494577 0.90697372
-0.21979335 0.39641878 0.90466511
-0.21939299 0.39817044 0.90301716
-0.23649319 -0.10799835 0.98450208
-0.23533975 -0.10478776 0.97970039
-0.23525535 -0.10206729 0.97934908
-0.23454955 -0.09908624 0.97641093
-0.23459487 -0.096430019 0.97659951
-0.2339966 -0.093515567 0.97410899
-0.23413008 -0.090898864 0.97466469
-0.23371047 -0.088070676 0.97291785
-0.2344618 -0.085679963 0.97604561
-0.2340562 -0.082862534 0.97435713
-0.23406182 -0.080195248 0.97438055
-0.23283824 -0.077120692 0.96928686
-0.23281458 -0.074457802 0.96918833
-0.23266131 -0.071755476 0.96855026
-0.23319852 -0.069261722 0.97078669
-0.23292905 -0.066525333 0.96966487
-0.23317915 -0.063937545 0.97070605
-0.23246118 -0.061089654 0.96771717
-0.23270327 -0.058499493 0.96872497
-0.23195294 -0.055665635 0.96560138
-0.23305014 -0.053271208 0.97016895
-0.23260368 -0.050516505 0.96831042
-0.23369744 -0.048088927 0.97286361
-0.2333921 -0.045364454 0.97159255
-0.23464671 -0.042932361 0.97681534
-0.23444195 -0.040221289 0.975963
-0.23526487 -0.037679471 0.97938871
-0.23506203 -0.034966297 0.97854429
-0.23580328 -0.032387421 0.98163003
-0.23565182 -0.029679209 0.98099959
-0.23683128 -0.027126895 0.98590952
-0.23663141 -0.024405418 0.9850775
-0.23737267 -0.021774834 0.98816329
-0.23676462 -0.019018956 0.98563206
-0.23812671 -0.016412735 0.99130231
-0.23799549 -0.013689552 0.99075603
-0.23937742 -0.011039143 0.99650896
-0.23922551 -0.008303972 0.99587655
-0.24054927 -0.0056066597 1.0013872
-0.23999435 -0.0028567915 0.99907714
-0.24074903 -0.00012023469 1.0022188
-0.24030039 0.0026204134 1.0003512
-0.24140832 0.0053855539 1.0049634
-0.24129272 0.0081347153 1.0044822
-0.24191537 0.010914548 1.0070742
-0.24234208 0.013697509 1.0088506
-0.24265015 0.016482141 1.010133
-0.24385133 0.019344652 1.0151335
-0.24567404 0.022290954 1.0227213
-0.24929865 0.02546287 1.0378102
-0.25163725 0.028571444 1.0475457
-0.25329888 0.031648766 1.0544628
-0.25385416 0.03461314 1.0567744
-0.25465006 0.03762573 1.0600877
-0.25461766 0.040524647 1.0599529
-0.25497136 0.043488674 1.0614252
-0.25470701 0.046348307 1.0603248
-0.25466108 0.049244139 1.0601336
-0.25461897 0.052139718 1.0599583
-0.25489521 0.055103149 1.0611082
-0.25433099 0.057881605 1.0587595
-0.25431058 0.060777158 1.0586745
-0.25395322 0.063587882 1.0571868
-0.25459656 0.066652425 1.059865
-0.25438485 0.069498047 1.0589837
-0.25446132 0.07242085 1.059302
-0.2539345 0.075166821 1.0571089
-0.25394663 0.078066476 1.0571594
-0.25378302 0.080910347 1.0564783
-0.25376555 0.083798759 1.0564055
-0.25360158 0.08663673 1.055723
-0.25369856 0.089563087 1.0561267
-0.25327462 0.092301801 1.0543618
-0.253041 0.095102385 1.0533893
-0.25218233 0.097655587 1.0498147
-0.25227359 0.1005679 1.0501946
-0.25167421 0.10319909 1.0476995
-0.25181192 0.10612725 1.0482727
-0.25168812 0.10894538 1.0477574
-0.25190774 0.11191323 1.0486716
-0.25142431 0.11456574 1.0466591
-0.25125429 0.11735363 1.0459514
-0.25083646 0.12001904 1.044212
-0.25097463 0.12294731 1.0447872
-0.25031379 0.12547821 1.0420362
-0.25020683 0.12827799 1.0415909
-0.24983649 0.13093728 1.0400492
-0.25037691 0.13407585 1.0422989
-0.25063422 0.13707192 1.0433701
-0.25114915 0.14021768 1.0455136
-0.25069267 0.14282176 1.0436134
-0.25053969 0.14559181 1.0429766
-0.24990192 0.1480711 1.0403216
-0.2503331 0.15118143 1.0421165
-0.25001505 0.15384057 1.0407926
-0.25063446 0.15707998 1.0433711
-0.25028041 0.15971231 1.0418972
-0.25094306 0.16299698 1.0446558
-0.25052577 0.16558297 1.0429187
-0.25066987 0.16853687 1.0435184
-0.25033444 0.17116621 1.0421221
-0.25041786 0.17407906 1.0424694
-0.24956931 0.17633532 1.038937
-0.24948765 0.17912281 1.038597
-0.24895556 0.18157992 1.036382
-0.24929088 0.18466745 1.0377779
-0.24884872 0.18717782 1.0359372
-0.24905519 0.19017337 1.0367967
-0.24849252 0.19257759 1.0344543
-0.24809691 0.19510032 1.0328075
-0.24739261 0.19736779 1.0298755
-0.24736148 0.2001639 1.0297459
-0.24716175 0.20282094 1.0289145
-0.24683607 0.20536865 1.0275587
-0.24613151 0.20758937 1.0246257
-0.24582642 0.2101355 1.0233556
-0.24542826 0.21259408 1.0216981
-0.24506123 0.21507086 1.0201702
-0.24522799 0.21801382 1.0208644
-0.24403739 0.21973838 1.015908
-0.24358895 0.22211252 1.0140412
-0.2423345 0.22373229 1.008819
-0.24249597 0.22664684 1.0094912
-0.2416819 0.22864217 1.0061023
-0.24160834 0.23132791 1.0057961
-0.24096693 0.2334618 1.0031259
-0.24102016 0.23626201 1.0033475
-0.24042539 0.23842084 1.0008715
-0.239831 0.24056648 0.99839717
-0.23891559 0.24237289 0.99458635
-0.23865049 0.24482556 0.99348277
-0.23838837 0.24727526 0.99239159
-0.23854792 0.25016123 0.99305582
-0.23843803 0.25276515 0.9925983
-0.23854519 0.25559917 0.99304444
-0.23757233 0.25726607 0.98899448
-0.23728742 0.25966358 0.98780841
-0.23648773 0.26148543 0.98447937
-0.23620968 0.26387176 0.98332185
-0.23518093 0.26540458 0.97903925
-0.23503517 0.26792046 0.97843248
-0.23442192 0.26989484 0.97587961
-0.23428041 0.27240366 0.97529048
-0.23310761 0.27369842 0.9704082
-0.23319565 0.27646118 0.97077471
-0.23234874 0.27810687 0.9672491
-0.23240496 0.28082457 0.96748316
-0.23182337 0.28276554 0.96506202
-0.23200709 0.28563547 0.96582681
-0.23117772 0.28725079 0.96237421
-0.23061688 0.28918388 0.9600395
-0.22999917 0.29103225 0.95746803
-0.22961892 0.29316977 0.95588511
-0.22899115 0.29497969 0.95327175
-0.22879156 0.29733175 0.95244086
-0.22893842 0.30013347 0.95305222
-0.22959408 0.30361134 0.9557817
-0.22918567 0.30568492 0.95408148
-0.22899146 0.30803734 0.953273
-0.22833458 0.30975768 0.95053846
-0.22926489 0.31363431 0.95441127
-0.22920869 0.31617135 0.95417732
-0.22973488 0.31951711 0.95636785
-0.22885461 0.32090273 0.9527033
-0.22883135 0.32347974 0.9526065
-0.22780199 0.32462251 0.94832134
-0.22771761 0.3270992 0.94797009
-0.22718507 0.3289251 0.94575316
-0.22720835 0.33154991 0.94585007
-0.22670104 0.33339497 0.94373816
-0.22647391 0.33564368 0.94279265
-0.22583508 0.33727238 0.94013327
-0.226346 0.3406167 0.94226021
-0.22597772 0.34263957 0.94072706
-0.2267102 0.34633562 0.94377631
-0.22603889 0.3478879 0.94098169
-0.22633263 0.35092112 0.94220454
-0.22548428 0.35217723 0.9386729
-0.22554369 0.35484219 0.93892026
-0.22483647 0.35629356 0.93597609
-0.22490242 0.35896292 0.93625069
-0.22424442 0.36047 0.93351144
-0.2241599 0.36289048 0.93315959
-0.22311039 0.36373585 0.92879063
-0.22295238 0.36602083 0.92813283
-0.22218649 0.36729729 0.92494446
-0.22249004 0.37033644 0.92620814
-0.2220321 0.37210628 0.92430174
-0.22202297 0.37462294 0.92426372
-0.22122741 0.3758035 0.9209519
-0.22115883 0.37820914 0.9206664
-0.22096251 0.3803933 0.91984916
-0.2206599 0.3823888 0.91858941
-0.21919264 0.38234583 0.91248131
-0.21897563 0.38446453 0.91157794
-0.21883734 0.38671735 0.91100222
-0.21942522 0.39025858 0.91344953
-0.2189108 0.39184019 0.91130805
-0.21847542 0.39355242 0.90949559
-0.21781902 0.39485404 0.90676302
-0.21756245 0.39687005 0.90569496
-0.21730849 0.39888501 0.90463775
-0.23327613 -0.10775813 0.98231226
-0.23226747 -0.10461282 0.97806484
-0.23182566 -0.10173956 0.9762044
-0.23114471 -0.098774292 0.97333694
-0.23159671 -0.096295811 0.97524029
-0.23140804 -0.093547903 0.97444582
-0.23202448 -0.091120534 0.9770416
-0.23131657 -0.088174127 0.97406065
-0.23207931 -0.085787669 0.97727251
-0.23103313 -0.082735822 0.97286713
-0.23150131 -0.080232948 0.97483855
-0.23033369 -0.077171206 0.96992177
-0.23075993 -0.074652039 0.9717167
-0.22976844 -0.071680747 0.96754158
-0.23051678 -0.069255024 0.97069275
-0.22998141 -0.066441186 0.96843839
-0.23110275 -0.0640992 0.97316027
-0.23032528 -0.061226591 0.96988636
-0.23059733 -0.058638807 0.97103196
-0.2295718 -0.055729751 0.96671355
-0.23085612 -0.053378433 0.97212172
-0.23031342 -0.050596122 0.96983647
-0.23126267 -0.048136875 0.97383368
-0.23095891 -0.04540937 0.97255456
-0.2325307 -0.043035995 0.97917324
-0.23225871 -0.040306389 0.97802794
-0.23328064 -0.037792679 0.98233128
-0.2330755 -0.035070751 0.98146743
-0.23395881 -0.032504778 0.98518699
-0.23372363 -0.029775932 0.9841966
-0.23505172 -0.02723364 0.98978913
-0.23503242 -0.024520136 0.98970789
-0.2356452 -0.021865731 0.99228829
-0.23531964 -0.019120943 0.99091738
-0.23631895 -0.016476031 0.99512535
-0.23643 -0.013756385 0.99559301
-0.23732537 -0.011070764 0.99936336
-0.23707336 -0.0083241975 0.99830216
-0.23796798 -0.0056104786 1.0020694
-0.23775637 -0.0028627994 1.0011783
-0.23881826 -0.0001206463 1.0056498
-0.23828742 0.0026284377 1.0034145
-0.23916644 0.0053970893 1.007116
-0.23896185 0.0081490679 1.0062544
-0.23968084 0.010938478 1.0092821
-0.23995677 0.013719143 1.010444
-0.24049021 0.016523868 1.0126903
-0.24146524 0.019376336 1.0167961
-0.24299921 0.0223026 1.0232556
-0.24645022 0.025462313 1.0377876
-0.24924122 0.028625846 1.0495403
-0.25090933 0.031711847 1.0565646
-0.25126001 0.034654636 1.0580413
-0.25193775 0.037654389 1.0608952
-0.25159708 0.040505826 1.0594606
-0.25207648 0.043490894 1.0614794
-0.25188148 0.046362884 1.0606583
-0.25224039 0.049338721 1.0621697
-0.25232548 0.052266113 1.0625279
-0.25253791 0.055223323 1.0634224
-0.2520023 0.058013223 1.061167
-0.2519179 0.06089985 1.0608116
-0.2514843 0.063696086 1.0589858
-0.25198388 0.066729426 1.0610895
-0.25179517 0.069584101 1.0602949
-0.25219604 0.072604135 1.0619829
-0.2514964 0.075303905 1.0590367
-0.25126636 0.078133568 1.058068
-0.25098196 0.080940388 1.0568705
-0.25130635 0.083944 1.0582365
-0.2511394 0.086785316 1.0575335
-0.25115624 0.08968839 1.0576043
-0.25047538 0.09233468 1.0547373
-0.25030997 0.0951612 1.0540408
-0.24959677 0.097769335 1.0510375
-0.24971934 0.10069804 1.0515536
-0.24898529 0.10327426 1.0484626
-0.24896011 0.10613574 1.0483565
-0.24891342 0.10898724 1.04816
-0.24902791 0.11191008 1.048642
-0.24879752 0.1146766 1.0476719
-0.2486259 0.11746559 1.0469493
-0.24823247 0.12014323 1.0452925
-0.24820344 0.1229924 1.0451703
-0.24745286 0.125475 1.0420096
-0.24774234 0.12847967 1.0432286
-0.2473639 0.13113692 1.041635
-0.24786101 0.13425972 1.0437284
-0.24751802 0.13692924 1.042284
-0.24809077 0.14010799 1.0446959
-0.24768156 0.14273408 1.0429727
-0.24791376 0.14572774 1.0439504
-0.24723275 0.14817944 1.0410827
-0.24755244 0.15122676 1.042429
-0.24700834 0.15374379 1.0401378
-0.24726312 0.15675472 1.0412107
-0.24670333 0.15924573 1.0388534
-0.24723184 0.16243887 1.0410789
-0.2471721 0.16525094 1.0408274
-0.24762534 0.16841049 1.0427359
-0.24738267 0.1710992 1.0417141
-0.24752142 0.1740505 1.0422983
-0.24693035 0.17648338 1.0398093
-0.24680375 0.17923994 1.0392762
-0.24611248 0.18157701 1.0363654
-0.24605462 0.18437274 1.0361217
-0.24571043 0.18694928 1.0346724
-0.2459749 0.189988 1.035786
-0.24541894 0.19238965 1.0334449
-0.24497139 0.19486474 1.0315603
-0.24441271 0.1972398 1.0292077
-0.24452817 0.2001538 1.029694
-0.24426447 0.20275572 1.0285835
-0.2440493 0.20539238 1.0276774
-0.24357016 0.2077989 1.0256598
-0.24291715 0.210044 1.02291
-0.24188912 0.21194547 1.018581
-0.24134167 0.21424983 1.0162758
-0.24133264 0.21702576 1.0162377
-0.23984849 0.21845792 1.0099881
-0.23997506 0.22134148 1.0105211
-0.23901936 0.22321726 1.0064967
-0.23938344 0.22631873 1.0080298
-0.23860753 0.22833766 1.0047624
-0.23850515 0.23099102 1.0043314
-0.23805308 0.2332993 1.0024277
-0.23792668 0.23592007 1.0018954
-0.23744278 0.23817934 0.99985772
-0.23664844 0.24011244 0.99651283
-0.23569643 0.24186543 0.992504
-0.23532905 0.24420312 0.99095696
-0.23531924 0.2469075 0.99091566
-0.23535392 0.24965888 0.99106169
-0.23538081 0.25240269 0.99117494
-0.235265 0.25499246 0.99068725
-0.23479813 0.257195 0.98872131
-0.2344027 0.25946584 0.9870562
-0.2339918 0.26171026 0.98532587
-0.23353332 0.26389146 0.98339528
-0.23270188 0.2656363 0.9798941
-0.23211187 0.26764038 0.9774096
-0.23126385 0.26933035 0.97383863
-0.2309517 0.27163103 0.97252417
-0.23007345 0.27325213 0.96882594
-0.23033224 0.27621654 0.96991569
-0.22958492 0.27796876 0.96676874
-0.22945936 0.28046373 0.96624005
-0.22905363 0.28261012 0.96453154
-0.22927928 0.28553343 0.96548176
-0.22875088 0.28751418 0.96325672
-0.22831224 0.28959659 0.96140957
-0.22749883 0.29118922 0.95798439
-0.22714043 0.29335073 0.95647514
-0.22643937 0.29505745 0.95352304
-0.22627255 0.2974503 0.9528206
-0.22606865 0.29979011 0.95196193
-0.22641128 0.3028563 0.95340478
-0.22591026 0.30479214 0.95129502
-0.22559553 0.30696991 0.94996971
-0.22491965 0.30864483 0.94712359
-0.22565755 0.31226054 0.95023084
-0.22594202 0.31526059 0.95142871
-0.22630036 0.31837112 0.95293766
-0.22566432 0.32007954 0.95025933
-0.22527482 0.32212576 0.94861919
-0.22465578 0.32383215 0.94601244
-0.2247479 0.32655755 0.94640034
-0.22446321 0.32873324 0.94520152
-0.2243695 0.33118427 0.94480693
-0.22377634 0.33289015 0.9423092
-0.22361118 0.33522397 0.94161367
-0.22313198 0.33707955 0.93959582
-0.22331801 0.33993673 0.9403792
-0.22295061 0.34194934 0.93883204
-0.22346151 0.34531075 0.94098347
-0.22317034 0.34743524 0.93975735
-0.22340991 0.3503854 0.94076616
-0.22253272 0.35157672 0.93707234
-0.22218092 0.35358393 0.93559092
-0.22155952 0.35515088 0.93297428
-0.22163524 0.35782897 0.9332931
-0.22101916 0.35938394 0.93069887
-0.22058716 0.36122611 0.92887974
-0.21911098 0.36133638 0.92266363
-0.21864091 0.36308333 0.92068416
-0.21800885 0.36454859 0.91802257
-0.21828641 0.36753085 0.91919142
-0.2180385 0.36962867 0.91814744
-0.21825399 0.37251168 0.91905487
-0.21816589 0.37487802 0.91868389
-0.21776824 0.37670684 0.91700941
-0.21725135 0.37831885 0.91483283
-0.21660134 0.37968558 0.91209567
-0.21611677 0.38132921 0.91005516
-0.21607786 0.38375321 0.90989137
-0.21605815 0.38621056 0.90980834
-0.21631256 0.38916063 0.91087961
-0.21610416 0.39127868 0.91000211
-0.21592912 0.39345261 0.90926498
-0.21551087 0.39517659 0.90750378
-0.21527891 0.39723465 0.90652698
-0.21476987 0.3987729 0.90438348
-0.22982717 -0.10740391 0.97908324
-0.22909912 -0.10439002 0.97598177
-0.22875391 -0.10156307 0.97451109
-0.22823845 -0.098670602 0.97231519
-0.22872314 -0.096210867 0.97438002
-0.22861104 -0.093495741 0.97390246
-0.22952357 -0.091190323 0.97778994
-0.22891827 -0.088278286 0.97521126
-0.2297352 -0.085912228 0.97869146
-0.22863674 -0.082833178 0.97401196
-0.22916459 -0.080349989 0.9762606
-0.22820869 -0.077351555 0.97218841
-0.22877057 -0.074872173 0.97458208
-0.22784333 -0.071909703 0.97063196
-0.22819704 -0.069358192 0.97213876
-0.22788219 -0.066603042 0.97079754
-0.2288903 -0.064226449 0.97509217
-0.22856759 -0.06146843 0.97371733
-0.22843982 -0.058768105 0.97317308
-0.2273526 -0.055835128 0.96854144
-0.22848064 -0.053445708 0.97334695
-0.22819236 -0.050715193 0.97211885
-0.22913739 -0.048251115 0.97614479
-0.22882727 -0.045515314 0.97482359
-0.2304199 -0.043143023 0.98160839
-0.23047371 -0.040463395 0.98183763
-0.23128068 -0.037905946 0.98527539
-0.23113626 -0.035184834 0.98466015
-0.23184735 -0.032587342 0.98768944
-0.23197672 -0.029898278 0.98824054
-0.23309714 -0.027322361 0.99301362
-0.23306252 -0.024598382 0.99286616
-0.23356877 -0.02192599 0.99502283
-0.23337273 -0.019184047 0.99418771
-0.23424742 -0.016522201 0.9979139
-0.23464349 -0.013811768 0.99960124
-0.23572496 -0.011124436 1.0042083
-0.23547596 -0.0083646001 1.0031476
-0.23587255 -0.0056259753 1.0048372
-0.23544973 -0.0028681112 1.0030359
-0.23645748 -0.00012084775 1.007329
-0.23620228 0.0026358438 1.0062418
-0.23708516 0.0054125609 1.010003
-0.23698689 0.0081760343 1.0095843
-0.23775804 0.010977357 1.0128695
-0.23808256 0.013770845 1.0142519
-0.23867171 0.016590301 1.0167618
-0.23910357 0.019410741 1.0186015
-0.2400448 0.022288555 1.0226113
-0.24305201 0.025404278 1.0354222
-0.24652825 0.028644694 1.0502313
-0.24897458 0.031834554 1.0606529
-0.24927548 0.03478216 1.0619347
-0.24966533 0.037750233 1.0635955
-0.24911071 0.040573582 1.0612328
-0.24991339 0.043620892 1.0646523
-0.2497061 0.046498869 1.0637692
-0.24988919 0.04944925 1.0645492
-0.24954976 0.052294414 1.0631032
-0.24983443 0.055269722 1.0643159
-0.24961543 0.05813437 1.063383
-0.24967612 0.061062314 1.0636415
-0.24926545 0.063870892 1.061892
-0.24942376 0.066822305 1.0625664
-0.24915579 0.069658257 1.0614249
-0.24945959 0.072654471 1.0627191
-0.24895 0.075411379 1.0605482
-0.24911785 0.078369521 1.0612632
-0.24882111 0.081179991 1.0599991
-0.24906753 0.084167093 1.0610489
-0.24833995 0.08681944 1.0579493
-0.2483737 0.089729838 1.0580931
-0.24754888 0.092320837 1.0545793
-0.24767998 0.09526024 1.0551378
-0.24714547 0.097938932 1.0528607
-0.24741249 0.10093214 1.0539982
-0.24662563 0.10348935 1.0506462
-0.24648356 0.10630628 1.050041
-0.24597551 0.10895777 1.0478766
-0.24568714 0.11169729 1.0466481
-0.24534933 0.11440702 1.0452091
-0.24555252 0.11736745 1.0460746
-0.2452938 0.12010644 1.0449724
-0.24527611 0.12296024 1.0448971
-0.24440069 0.12537363 1.0411677
-0.245092 0.12858857 1.0441128
-0.24462344 0.13119756 1.0421166
-0.24505438 0.13428855 1.0439525
-0.24443044 0.13679923 1.0412945
-0.2450743 0.14001969 1.0440373
-0.24513631 0.14291593 1.0443015
-0.24569941 0.14611161 1.0467004
-0.24508578 0.14860693 1.0440862
-0.24493642 0.15137488 1.04345
-0.24416785 0.15374941 1.0401758
-0.24442367 0.156763 1.0412656
-0.24396503 0.159316 1.0393118
-0.24437906 0.16243836 1.0410756
-0.24421427 0.16517888 1.0403736
-0.24514157 0.16866697 1.0443239
-0.24480844 0.17129476 1.0429047
-0.24482292 0.17416206 1.0429665
-0.24395812 0.17639393 1.0392823
-0.24403025 0.17929401 1.0395896
-0.24317291 0.181502 1.0359373
-0.24329837 0.18443502 1.0364717
-0.24261864 0.18675119 1.033576
-0.24281725 0.18973783 1.0344222
-0.24214365 0.19203737 1.0315526
-0.24222772 0.19493091 1.0319107
-0.24148175 0.19714878 1.0287328
-0.24162348 0.20008433 1.0293366
-0.24106684 0.20243672 1.0269653
-0.24125089 0.20540674 1.0277493
-0.24061728 0.20767535 1.02505
-0.23996027 0.20990871 1.0222511
-0.23877342 0.21165709 1.0171951
-0.23741184 0.2132208 1.0113946
-0.23740232 0.21598282 1.0113541
-0.23640992 0.21783893 1.0071263
-0.23700923 0.22115713 1.0096794
-0.23622587 0.22318302 1.0063423
-0.23665513 0.22635043 1.008171
-0.23562312 0.22811316 1.0037745
-0.23573561 0.23097317 1.0042537
-0.23511243 0.23310642 1.001599
-0.2351407 0.23587862 1.0017194
-0.23414999 0.23761742 0.99749887
-0.23363133 0.23981763 0.99528933
-0.23274939 0.24162862 0.99153221
-0.23275581 0.24435161 0.99155957
-0.23257588 0.24687696 0.99079305
-0.23268114 0.24970417 0.99124146
-0.23244779 0.25216648 0.99024737
-0.23223692 0.25464803 0.98934907
-0.23155501 0.25660262 0.98644406
-0.23134066 0.25906491 0.98553091
-0.23076023 0.26110795 0.98305821
-0.23056436 0.26357707 0.98222375
-0.2295831 0.26513463 0.9780435
-0.22899897 0.26713255 0.97555512
-0.22802497 0.26865754 0.9714058
-0.22767533 0.27090263 0.96991628
-0.22726256 0.27306372 0.96815783
-0.22753991 0.27605242 0.96933937
-0.22710237 0.27817196 0.96747541
-0.22699873 0.28069416 0.96703392
-0.22658379 0.28282538 0.96526623
-0.22684672 0.28580093 0.96638632
-0.22641255 0.28789625 0.96453673
-0.22617954 0.29023954 0.96354407
-0.22510213 0.291484 0.95895422
-0.2248303 0.29375589 0.95779622
-0.22401322 0.29530263 0.95431536
-0.22420715 0.29817483 0.95514148
-0.22336648 0.29966357 0.9515602
-0.22357021 0.30254605 0.9524281
-0.22286057 0.30418658 0.94940501
-0.22302064 0.30700779 0.95008689
-0.2225367 0.30893868 0.94802529
-0.22335277 0.31267819 0.95150179
-0.22332826 0.31525019 0.95139736
-0.22330569 0.31782439 0.95130122
-0.22232889 0.31902882 0.94713998
-0.22215222 0.32136789 0.94638735
-0.22174177 0.32336193 0.94463879
-0.22198446 0.32630649 0.94567269
-0.22152108 0.32821056 0.94369864
-0.22170518 0.33107069 0.94448292
-0.22097176 0.33255431 0.94135851
-0.2210898 0.33531213 0.94186133
-0.22027737 0.3366507 0.93840033
-0.22038038 0.33938003 0.93883914
-0.21969336 0.34088594 0.93591243
-0.22019981 0.34424156 0.93806988
-0.21987407 0.34629837 0.93668222
-0.22026238 0.34948045 0.93833643
-0.21918902 0.35033542 0.93376386
-0.21892062 0.35246131 0.93262047
-0.21818702 0.35382655 0.92949528
-0.21853274 0.35693753 0.93096805
-0.21801502 0.3586362 0.9287625
-0.2175051 0.36033577 0.9265902
-0.21580069 0.36003056 0.91932929
-0.21505336 0.36129352 0.91614562
-0.21475811 0.36330378 0.91488785
-0.2153406 0.36680228 0.91736925
-0.21534935 0.36933038 0.9174065
-0.21526295 0.37169439 0.91703844
-0.21495664 0.37367412 0.91573358
-0.21457101 0.37550786 0.91409075
-0.21405579 0.37710431 0.91189587
-0.21360172 0.37879717 0.90996152
