# .PCD v0.7 - Point Cloud Data file format
VERSION 0.7
FIELDS x y z
SIZE 4 4 4
TYPE F F F
COUNT 1 1 1
WIDTH 1384
HEIGHT 1
VIEWPOINT 0 0 0 1 0 0 0
POINTS 1384
DATA ascii
-0.19034538 -0.1573416 0.8830238
-0.19043908 -0.15499884 0.8834585
-0.18995047 -0.15218717 0.88119179
-0.19016811 -0.1499448 0.88220149
-0.1897267 -0.14718559 0.88015372
-0.18994014 -0.14493732 0.88114387
-0.18969308 -0.14233807 0.87999773
-0.19015722 -0.14026973 0.88215095
-0.18988734 -0.13765746 0.88089895
-0.1905425 -0.1357109 0.88393825
-0.19036776 -0.13316715 0.88312763
-0.19090009 -0.13111347 0.88559711
-0.19062716 -0.12850341 0.88433099
-0.19115821 -0.12643206 0.88679457
-0.19081785 -0.12378194 0.88521564
-0.19084634 -0.12137505 0.88534778
-0.1900242 -0.11843725 0.8815338
-0.19016723 -0.11610965 0.88219738
-0.18976654 -0.11345334 0.88033855
-0.19045433 -0.11144415 0.88352925
-0.19025062 -0.10890715 0.88258421
-0.19062385 -0.10669825 0.88431567
-0.19014129 -0.10401173 0.88207704
-0.19047649 -0.10177442 0.88363206
-0.19005446 -0.099133611 0.88167423
-0.19025649 -0.096821107 0.88261145
-0.18998013 -0.094266102 0.88132942
-0.19033822 -0.092024855 0.8829906
-0.18972653 -0.08931797 0.88015294
-0.18997313 -0.087019786 0.88129693
-0.18982916 -0.08454138 0.880629
-0.19090652 -0.08259505 0.88562697
-0.19191711 -0.080593303 0.89031518
-0.19460773 -0.079250015 0.90279716
-0.19606996 -0.077353716 0.90958047
-0.19724587 -0.075310938 0.91503561
-0.19684628 -0.072656728 0.91318184
-0.19692726 -0.07018397 0.91355759
-0.19607989 -0.067390092 0.9096266
-0.19618921 -0.06493438 0.91013372
-0.19522695 -0.062134847 0.90566975
-0.19549675 -0.059736233 0.90692133
-0.19437858 -0.056924302 0.90173411
-0.19495659 -0.054615963 0.90441549
-0.19415677 -0.051924452 0.9007051
-0.1952205 -0.049727961 0.90563977
-0.19430287 -0.047024913 0.90138286
-0.19434786 -0.044565927 0.90159154
-0.19313127 -0.041832533 0.89594769
-0.19348146 -0.03944952 0.89757228
-0.19290857 -0.03688113 0.89491463
-0.19352508 -0.034539577 0.89777464
-0.19295059 -0.031984925 0.89510953
-0.19361171 -0.029633997 0.89817655
-0.19289769 -0.027073264 0.89486414
-0.19326618 -0.024668854 0.8965736
-0.19245142 -0.022119079 0.89279383
-0.19300415 -0.019729808 0.89535803
-0.19251478 -0.017233204 0.8930878
-0.19284827 -0.014812237 0.89463484
-0.19245948 -0.012336497 0.89283127
-0.1930293 -0.0099199042 0.89547467
-0.19253026 -0.0074474812 0.89315957
-0.19271767 -0.0050055725 0.89402902
-0.1919879 -0.0025467335 0.8906436
-0.19278656 -0.00010729366 0.89434856
-0.19233979 0.0023373112 0.89227599
-0.19255355 0.0047869813 0.89326763
-0.19132638 0.0071879504 0.88757473
-0.19115105 0.0096106129 0.88676137
-0.19106516 0.012034452 0.88636291
-0.19084555 0.014445987 0.88534415
-0.19067799 0.016856538 0.88456678
-0.19029024 0.019240571 0.88276803
-0.19043626 0.021675499 0.88344538
-0.19000278 0.024040818 0.8814345
-0.19024195 0.026488774 0.88254398
-0.18979551 0.028838638 0.88047296
-0.18998119 0.031281229 0.8813343
-0.18928386 0.033571932 0.87809938
-0.18958463 0.036034618 0.87949461
-0.1885962 0.038243532 0.87490928
-0.1886107 0.040643431 0.87497652
-0.18785398 0.042867716 0.87146604
-0.18781351 0.045245316 0.87127829
-0.18737023 0.047519729 0.86922193
-0.18765078 0.049975645 0.87052339
-0.18749562 0.052317116 0.86980361
-0.18672502 0.054475095 0.86622876
-0.18602945 0.056636333 0.86300194
-0.18546911 0.058822773 0.86040246
-0.18496571 0.061013762 0.85806721
-0.18410763 0.063070454 0.85408652
-0.18375501 0.065284908 0.85245067
-0.18371497 0.067605428 0.85226494
-0.18349448 0.069856234 0.85124207
-0.18382493 0.072318181 0.85277504
-0.18397322 0.074714556 0.85346299
-0.18437579 0.077221185 0.85533053
-0.18408859 0.079440393 0.85399818
-0.18406841 0.081770927 0.85390455
-0.18384914 0.084009975 0.85288739
-0.18373987 0.086295098 0.85238045
-0.18319887 0.088369206 0.84987068
-0.18339372 0.090793863 0.85077465
-0.18276833 0.092806958 0.84787339
-0.18306541 0.095284313 0.84925163
-0.1825224 0.097321264 0.84673256
-0.18319288 0.10000687 0.84984291
-0.18259299 0.10199988 0.84705997
-0.18195994 0.10395869 0.84412324
-0.18114555 0.1057955 0.84034526
-0.18107744 0.10805694 0.84002924
-0.18071039 0.11013448 0.83832651
-0.18048446 0.11229047 0.83727837
-0.18021992 0.11441622 0.83605117
-0.18071328 0.11702604 0.83833992
-0.18090828 0.1194514 0.83924454
-0.18107858 0.12186509 0.84003454
-0.18056767 0.123816 0.83766443
-0.18068506 0.12619273 0.83820897
-0.18019609 0.12814125 0.83594066
-0.18037772 0.13056275 0.83678323
-0.17940693 0.13214006 0.83227968
-0.17965983 0.13460955 0.83345288
-0.1787407 0.13619243 0.829189
-0.17882504 0.13852929 0.82958025
-0.17810985 0.14023878 0.82626247
-0.17846431 0.14278588 0.82790679
-0.17829698 0.14491789 0.82713056
-0.17868109 0.14750087 0.82891244
-0.17818052 0.14935207 0.8265903
-0.17804757 0.15150335 0.82597351
-0.17741464 0.15321946 0.82303733
-0.17746034 0.15551418 0.82324934
-0.17690723 0.15727772 0.82068342
-0.17652738 0.15918341 0.81892127
-0.17584926 0.1608067 0.81577539
-0.17578225 0.16297936 0.81546456
-0.17509471 0.16456708 0.81227499
-0.17450404 0.16622964 0.80953491
-0.17327726 0.16726312 0.80384374
-0.17314577 0.16933663 0.8032338
-0.17291866 0.17131205 0.80218023
-0.1728013 0.17339182 0.80163574
-0.17310826 0.1758998 0.80305982
-0.17257512 0.17755122 0.80058646
-0.17309093 0.18028165 0.80297941
-0.17253582 0.18189615 0.80040419
-0.17263389 0.18419345 0.80085909
-0.17188336 0.18557706 0.79737741
-0.17249671 0.18843144 0.80022269
-0.17247331 0.19059779 0.80011421
-0.17297436 0.19334973 0.80243862
-0.17245762 0.19496381 0.80004144
-0.17262968 0.19735219 0.8008396
-0.17206575 0.1988942 0.7982235
-0.17254221 0.20163773 0.80043387
-0.17255275 0.20384291 0.80048269
-0.17327426 0.20689733 0.80382985
-0.17272282 0.20843393 0.80127168
-0.17305818 0.21103793 0.80282742
-0.17228842 0.21228877 0.79925644
-0.17246351 0.21469627 0.80006874
-0.17174727 0.21598729 0.79674602
-0.17211297 0.2186345 0.79844254
-0.17138578 0.21988884 0.7950691
-0.17168741 0.22245771 0.79646832
-0.17185397 0.22485754 0.79724103
-0.17212002 0.22739305 0.79847527
-0.17137659 0.2285888 0.79502642
-0.17101856 0.23028465 0.79336548
-0.17080685 0.23217027 0.79238337
-0.1710519 0.23467718 0.79352021
-0.17060721 0.23623525 0.79145724
-0.1707892 0.23865771 0.79230148
-0.17024025 0.24005415 0.78975493
-0.1705725 0.24269038 0.79129624
-0.17030115 0.24446858 0.79003745
-0.17114538 0.24785548 0.79395384
-0.17095634 0.24975431 0.79307687
-0.17106365 0.25208506 0.79357469
-0.17040633 0.25328201 0.79052532
-0.17034462 0.25535512 0.7902391
-0.17013624 0.25720495 0.78927243
-0.17040065 0.25977018 0.79049897
-0.17014404 0.26154128 0.78930855
-0.16985159 0.26325029 0.78795189
-0.16933714 0.26460502 0.78556532
-0.16945383 0.26694083 0.78610665
-0.16949168 0.26915446 0.78628224
-0.16963018 0.27153015 0.78692478
-0.16909851 0.27282807 0.78445828
-0.1689862 0.27479443 0.78393728
-0.16829774 0.27581373 0.78074348
-0.16819485 0.27778259 0.78026611
-0.16759118 0.27891546 0.7774657
-0.16740869 0.28073925 0.77661908
-0.16675371 0.28176007 0.77358061
-0.16670713 0.28379998 0.77336454
-0.16656741 0.28567898 0.7727164
-0.16658506 0.28782627 0.77279824
-0.16567546 0.28836018 0.76857859
-0.16535074 0.28989634 0.76707214
-0.17757225 -0.2378161 0.8343721
-0.17844307 -0.23668541 0.8384639
-0.17825326 -0.23413916 0.83757204
-0.17900379 -0.23282081 0.84109861
-0.17917678 -0.23073943 0.84191144
-0.18042009 -0.23001814 0.84775347
-0.18043791 -0.22771825 0.84783721
-0.18092714 -0.22600676 0.85013598
-0.18057083 -0.22323734 0.84846175
-0.18125395 -0.22174877 0.85167164
-0.18122098 -0.21937573 0.85151666
-0.18188033 -0.21783271 0.85461479
-0.18162224 -0.21518575 0.85340208
-0.18225366 -0.21358785 0.85636902
-0.18223533 -0.21122062 0.85628289
-0.18289527 -0.20963128 0.85938382
-0.18241988 -0.20673828 0.85715008
-0.18286993 -0.20489438 0.85926473
-0.18244189 -0.20206638 0.85725343
-0.18292263 -0.20024423 0.85951239
-0.1825041 -0.19743685 0.85754579
-0.18356299 -0.19621955 0.86252129
-0.18379945 -0.19410641 0.86363232
-0.18491031 -0.19289938 0.86885202
-0.18432096 -0.18991196 0.86608279
-0.18605754 -0.18930627 0.8742426
-0.18616454 -0.18701881 0.87474537
-0.18548736 -0.1839509 0.87156343
-0.18625838 -0.182318 0.87518626
-0.18646455 -0.1801196 0.87615502
-0.18717803 -0.17839944 0.87950754
-0.18670246 -0.17554292 0.8772729
-0.18709669 -0.17350525 0.8791253
-0.18707405 -0.17107622 0.87901896
-0.18772383 -0.16925402 0.88207209
-0.18785767 -0.16695657 0.88270098
-0.18858801 -0.16517814 0.88613272
-0.18876794 -0.16290589 0.88697815
-0.1889627 -0.16064161 0.88789326
-0.18822829 -0.15759438 0.88444251
-0.18803248 -0.15501004 0.88352239
-0.18784969 -0.15244134 0.88266349
-0.18837577 -0.15044346 0.88513541
-0.18808806 -0.14779261 0.88378358
-0.18805769 -0.14534804 0.88364083
-0.18762456 -0.14259815 0.88160568
-0.18814202 -0.14056964 0.88403708
-0.18780908 -0.13790339 0.88247269
-0.18848664 -0.13597468 0.88565636
-0.18825457 -0.13338403 0.88456595
-0.18877743 -0.13132453 0.88702273
-0.1882856 -0.12855874 0.88471174
-0.18897797 -0.12659894 0.88796502
-0.18865134 -0.12395179 0.88643026
-0.18854456 -0.12145466 0.88592851
-0.1874975 -0.11836669 0.88100863
-0.18771462 -0.11608748 0.88202888
-0.18755136 -0.11357231 0.88126171
-0.18820257 -0.1115441 0.88432163
-0.18801759 -0.10901428 0.88345242
-0.18843885 -0.10683292 0.88543183
-0.18796061 -0.10414234 0.88318467
-0.18848236 -0.10200526 0.88563627
-0.18811402 -0.099384494 0.88390553
-0.18840367 -0.097112365 0.88526654
-0.18770805 -0.094337605 0.88199794
-0.18813667 -0.092131294 0.88401192
-0.18757451 -0.08944153 0.88137048
-0.18761005 -0.087043539 0.8815375
-0.18724664 -0.084464669 0.87982988
-0.18812446 -0.082439087 0.88395458
-0.18880598 -0.080307409 0.8871569
-0.19096377 -0.078767098 0.89729589
-0.19276296 -0.077027947 0.90574986
-0.19457981 -0.075249307 0.91428679
-0.19398047 -0.072520584 0.91147065
-0.19381447 -0.069963723 0.91069067
-0.19309922 -0.067219935 0.90732986
-0.19349301 -0.064866349 0.90918016
-0.19275734 -0.062138531 0.90572345
-0.19307214 -0.059754759 0.9072026
-0.19225566 -0.057027329 0.90336615
-0.19259542 -0.054649007 0.90496266
-0.19170806 -0.051929526 0.90079314
-0.19250421 -0.049667247 0.90453404
-0.19188496 -0.047037512 0.90162438
-0.19183086 -0.044554982 0.90137011
-0.19071122 -0.041840073 0.89610916
-0.19093291 -0.039430998 0.89715087
-0.19065581 -0.036919631 0.89584881
-0.19086283 -0.034502909 0.89682156
-0.19028743 -0.03194949 0.89411789
-0.1906634 -0.029558375 0.89588451
-0.19017643 -0.027034909 0.89359635
-0.19040389 -0.024616342 0.89466512
-0.18967193 -0.022080231 0.89122581
-0.19008566 -0.01968159 0.89316982
-0.1897601 -0.017205268 0.89164013
-0.19011112 -0.014789961 0.89328945
-0.18989603 -0.012328864 0.89227879
-0.19060351 -0.0099213263 0.89560306
-0.19009411 -0.0074478975 0.89320952
-0.19028306 -0.0050059552 0.89409739
-0.18918353 -0.0025418361 0.88893092
-0.18991362 -0.00010705526 0.8923614
-0.18921354 0.0023289181 0.88907194
-0.18978089 0.0047787828 0.89173776
-0.18849695 0.0071728071 0.88570482
-0.18857086 0.0096029257 0.88605213
-0.1883187 0.012014144 0.88486725
-0.18839343 0.014443935 0.88521844
-0.18820681 0.016852247 0.88434154
-0.18764941 0.019217782 0.88172245
-0.18761799 0.021629604 0.88157481
-0.18694146 0.023957942 0.87839592
-0.18705392 0.026380135 0.87892437
-0.1864062 0.02868823 0.87588084
-0.18674283 0.031143812 0.87746263
-0.18625975 0.033460803 0.8751927
-0.18682413 0.035967015 0.87784463
-0.18588203 0.03817834 0.87341791
-0.1860259 0.040602434 0.87409395
-0.18535334 0.042841531 0.87093371
-0.18566498 0.045303464 0.87239802
-0.1852724 0.047592517 0.87055337
-0.18559797 0.05006519 0.87208319
-0.18533601 0.052380193 0.87085229
-0.18451118 0.054522127 0.86697662
-0.18370265 0.056647852 0.86317748
-0.18285073 0.058738824 0.85917455
-0.18244462 0.060956806 0.85726625
-0.18140201 0.062943496 0.85236728
-0.1812046 0.065207481 0.85143971
-0.18095207 0.067445844 0.85025316
-0.18084981 0.069735646 0.84977263
-0.18099007 0.072119452 0.85043168
-0.18106481 0.07447993 0.85078287
-0.18134503 0.076929487 0.85209954
-0.18122248 0.079210214 0.85152376
-0.18154797 0.081689395 0.85305315
-0.18162487 0.084061891 0.85341448
-0.18154943 0.086363897 0.85306001
-0.18100299 0.088433847 0.85049236
-0.18089779 0.090710983 0.84999806
-0.18029344 0.092728689 0.84715837
-0.18038115 0.095095694 0.84757054
-0.17968735 0.097042881 0.84431052
-0.18013619 0.099604018 0.84641951
-0.17922129 0.10140509 0.84212059
-0.17869909 0.10340986 0.8396669
-0.17790329 0.10523934 0.83592761
-0.17794922 0.10755709 0.83614343
-0.1778051 0.10975871 0.83546621
-0.17769387 0.11197735 0.83494359
-0.17761022 0.11421084 0.8345505
-0.17805143 0.11678647 0.83662367
-0.17811951 0.11912389 0.83694357
-0.17855386 0.12171276 0.83898449
-0.17817132 0.12374544 0.83718705
-0.17853144 0.12629361 0.83887911
-0.17825808 0.12839481 0.83759469
-0.17838684 0.13078375 0.83819968
-0.17737612 0.13232596 0.83345056
-0.17737554 0.13460873 0.83344781
-0.17672668 0.13639116 0.83039898
-0.17667904 0.13862863 0.83017516
-0.17572822 0.14014457 0.82570744
-0.17577052 0.14244086 0.82590622
-0.1756881 0.14463553 0.82551891
-0.17594245 0.14710969 0.82671404
-0.1753649 0.14888409 0.82400024
-0.1751198 0.15093017 0.82284862
-0.17474316 0.15285487 0.8210789
-0.174785 0.15514132 0.82127547
-0.17393099 0.15662216 0.81726265
-0.17354155 0.15850531 0.81543273
-0.17277627 0.16003032 0.81183684
-0.17313392 0.16259019 0.81351739
-0.17253734 0.16425088 0.81071424
-0.17226827 0.16621217 0.80944991
-0.17117298 0.16735876 0.80430335
-0.17110729 0.16949704 0.80399472
-0.17073934 0.17133033 0.80226582
-0.17133148 0.17412992 0.80504811
-0.17142875 0.17643543 0.80550522
-0.17032589 0.17749281 0.80032307
-0.17052223 0.17989239 0.80124563
-0.1702323 0.18177778 0.79988331
-0.17036562 0.1841131 0.80050975
-0.16982041 0.18570985 0.79794794
-0.17012723 0.18823528 0.79938966
-0.17002074 0.19030599 0.79888928
-0.17015228 0.19264343 0.79950732
-0.16963892 0.19424583 0.79709518
-0.16997299 0.19681627 0.79866487
-0.16964263 0.19861738 0.79711258
-0.17029364 0.20157166 0.80017161
-0.16988927 0.20327984 0.79827154
-0.17032109 0.20598891 0.80030054
-0.1697914 0.20753387 0.79781163
-0.17036639 0.21042965 0.80051339
-0.16977233 0.21188122 0.79772204
-0.1697762 0.21407142 0.79774022
-0.16907376 0.21536206 0.79443961
-0.16936259 0.21791001 0.79579675
-0.16886957 0.2194494 0.79348016
-0.16914409 0.2219834 0.79477012
-0.16925086 0.22430214 0.79527181
-0.16957252 0.22691116 0.79678315
-0.16891828 0.22821003 0.79370904
-0.16876492 0.2301752 0.79298842
-0.16838315 0.23182197 0.79119462
-0.16882806 0.23460767 0.79328513
-0.16820073 0.23590101 0.79033744
-0.16820452 0.23807147 0.79035527
-0.1674387 0.23914285 0.78675687
-0.16808739 0.24223298 0.78980488
-0.1680477 0.24433891 0.78961837
-0.16895775 0.24783696 0.79389453
-0.16820937 0.24890439 0.79037803
-0.1683145 0.25122651 0.79087204
-0.16755703 0.25225273 0.78731287
-0.16790417 0.25493664 0.78894401
-0.16779013 0.25692329 0.7884081
-0.16832398 0.25990739 0.79091656
-0.1678548 0.2613436 0.78871202
-0.16760658 0.26311457 0.78754568
-0.16702268 0.26434791 0.78480202
-0.16719984 0.2667805 0.78563446
-0.16684291 0.26835862 0.78395736
-0.16696474 0.27070376 0.78452981
-0.16641696 0.27195778 0.7819559
-0.166665 0.27450845 0.78312141
-0.16613342 0.27577138 0.78062361
-0.16636951 0.27830482 0.78173298
-0.16590485 0.27966306 0.7795496
-0.16568974 0.28143325 0.77853888
-0.16483058 0.28209561 0.77450186
-0.16475889 0.28409374 0.77416503
-0.16465642 0.28603652 0.77368349
-0.16477866 0.28836995 0.77425796
-0.16391455 0.28896761 0.77019763
-0.16374654 0.29077917 0.76940817
-0.17572008 -0.2384043 0.83643585
-0.17659135 -0.23728366 0.84058321
-0.1765559 -0.23493373 0.8404144
-0.17728759 -0.23359551 0.84389728
-0.17750421 -0.23156628 0.84492844
-0.17853132 -0.23057817 0.84981751
-0.17854086 -0.22826234 0.84986293
-0.1788711 -0.22635207 0.85143489
-0.17853417 -0.22359762 0.84983104
-0.17921107 -0.22210847 0.85305315
-0.17934354 -0.21993402 0.85368371
-0.1799701 -0.2183556 0.85666621
-0.18003033 -0.21608108 0.85695291
-0.18062143 -0.21443523 0.85976654
-0.18030353 -0.21170667 0.8582533
-0.18069069 -0.20980506 0.86009622
-0.18026221 -0.20695692 0.8580566
-0.18081783 -0.20523696 0.86070138
-0.18035766 -0.20236279 0.85851097
-0.18098277 -0.20070416 0.86148649
-0.18079606 -0.19813953 0.86059779
-0.18197009 -0.1970533 0.8661862
-0.18207079 -0.19478816 0.86666554
-0.18357612 -0.19400479 0.87383097
-0.18313582 -0.1911514 0.87173516
-0.1840525 -0.18970816 0.87609857
-0.18416682 -0.18742447 0.87664276
-0.18341979 -0.18427244 0.87308687
-0.18421386 -0.18266806 0.8768667
-0.18441015 -0.18045799 0.87780106
-0.18500315 -0.17862584 0.8806237
-0.18445529 -0.17569159 0.87801588
-0.18493959 -0.17374128 0.8803212
-0.18497218 -0.17135985 0.8804763
-0.18560851 -0.16952901 0.88350523
-0.18587826 -0.16735156 0.88478929
-0.18649732 -0.16547699 0.88773602
-0.18676893 -0.16328254 0.88902897
-0.18685248 -0.16091904 0.88942665
-0.18640539 -0.15810327 0.88729846
-0.18619075 -0.1554933 0.88627678
-0.18595618 -0.15287253 0.88516021
-0.18622394 -0.1506643 0.88643473
-0.18583994 -0.14793028 0.88460684
-0.18601859 -0.14564683 0.88545728
-0.18596317 -0.14317846 0.88519347
-0.18621369 -0.14094312 0.88638598
-0.18569806 -0.13813135 0.88393152
-0.18600123 -0.13593142 0.88537461
-0.18617842 -0.13363315 0.88621807
-0.18660757 -0.13150783 0.88826084
-0.18627709 -0.12884589 0.88668776
-0.18652511 -0.12658516 0.88786834
-0.18630409 -0.12400576 0.88681626
-0.18633026 -0.12159344 0.88694084
-0.18557176 -0.11867862 0.88333035
-0.18568672 -0.11633079 0.88387758
-0.18536283 -0.11371075 0.88233584
-0.18599534 -0.11167338 0.88534659
-0.18576247 -0.10911123 0.88423812
-0.18615882 -0.10691653 0.88612479
-0.18567045 -0.10421491 0.88380009
-0.18636113 -0.10217243 0.88708776
-0.18619531 -0.099653549 0.88629848
-0.18649776 -0.097383499 0.88773817
-0.18558885 -0.094488822 0.88341171
-0.18617074 -0.092357412 0.88618153
-0.18569513 -0.089700006 0.88391757
-0.1858815 -0.087366141 0.88480467
-0.1850768 -0.084574535 0.88097435
-0.1859449 -0.082546517 0.8851065
-0.18622664 -0.0802432 0.88644761
-0.18822436 -0.078649551 0.89595681
-0.18940762 -0.076674111 0.90158921
-0.1914385 -0.074999876 0.91125625
-0.19075063 -0.072243005 0.90798199
-0.19084206 -0.069789067 0.90841722
-0.19040436 -0.067146137 0.90633374
-0.19100831 -0.064868376 0.9092086
-0.19047125 -0.062202249 0.90665215
-0.19048911 -0.059724107 0.90673721
-0.18958932 -0.056969758 0.90245414
-0.18983869 -0.054569203 0.90364116
-0.18908465 -0.05188679 0.90005183
-0.1898188 -0.049613018 0.90354645
-0.18920143 -0.046984475 0.90060776
-0.18961394 -0.044614356 0.90257132
-0.18855056 -0.041905459 0.89750957
-0.18888868 -0.039517503 0.89911902
-0.18804283 -0.036888473 0.89509279
-0.18841091 -0.034503806 0.8968448
-0.18757688 -0.03190507 0.89287478
-0.18805645 -0.029534392 0.89515764
-0.18743952 -0.026993295 0.89222091
-0.18791889 -0.024611875 0.89450276
-0.18745501 -0.022106713 0.8922947
-0.18771768 -0.019689858 0.89354503
-0.18707338 -0.017182847 0.89047813
-0.18742669 -0.014771259 0.89215988
-0.18735714 -0.012322647 0.89182884
-0.18835592 -0.0099321827 0.89658308
-0.18763749 -0.0074475124 0.89316332
-0.18774705 -0.0050036451 0.8936848
-0.18665114 -0.0025405132 0.88846827
-0.18708718 -0.00010683721 0.89054382
-0.18635905 0.0023236948 0.88707787
-0.18662643 0.0047606314 0.88835061
-0.18579063 0.0071620145 0.88437217
-0.1859419 0.0095925229 0.88509226
-0.18565896 0.011998913 0.88374543
-0.18576629 0.014428236 0.8842563
-0.18543684 0.016820738 0.88268816
-0.18499377 0.019192861 0.88057911
-0.18509038 0.021616455 0.8810389
-0.18457994 0.023963761 0.87860924
-0.18456751 0.026368899 0.87855005
-0.18374541 0.028647484 0.87463683
-0.18387081 0.0310647 0.87523371
-0.18328273 0.033355352 0.8724345
-0.18385875 0.035857689 0.87517631
-0.18324822 0.038128171 0.87227017
-0.1834853 0.040570144 0.87339872
-0.18298624 0.042845931 0.87102318
-0.18364038 0.045393761 0.87413687
-0.18343277 0.047734398 0.87314868
-0.18358965 0.050169226 0.87389541
-0.18291856 0.052371092 0.87070101
-0.18183012 0.054430518 0.86551994
-0.18117374 0.05659654 0.86239558
-0.18015929 0.058628902 0.85756671
-0.17993061 0.060900774 0.85647821
-0.17897771 0.062912114 0.85194236
-0.17900839 0.065257162 0.85208839
-0.17881812 0.067519575 0.8511827
-0.17862189 0.06977471 0.85024863
-0.17847845 0.072046034 0.84956586
-0.1785454 0.074401282 0.84988451
-0.17855725 0.076734602 0.84994096
-0.17853746 0.079054214 0.84984672
-0.17877696 0.081491515 0.85098678
-0.17892888 0.083893992 0.8517099
-0.1790787 0.086299412 0.85242307
-0.17871802 0.088456079 0.85070622
-0.17853467 0.090693422 0.84983349
-0.17801061 0.092748448 0.84733891
-0.17746519 0.094778411 0.84474266
-0.17654996 0.096591823 0.84038615
-0.17637569 0.098796405 0.83955657
-0.17584133 0.10079007 0.83701307
-0.17582855 0.10307553 0.83695215
-0.17508858 0.10492489 0.83342993
-0.17521337 0.10728444 0.83402389
-0.17502891 0.10945388 0.83314586
-0.17514439 0.11180998 0.83369559
-0.17485452 0.11390501 0.83231574
-0.17509483 0.11634479 0.83345968
-0.17503162 0.1185852 0.83315879
-0.17554687 0.12122342 0.8356114
-0.17551589 0.12349074 0.83546394
-0.17592856 0.12607519 0.83742827
-0.17577976 0.12826072 0.83671993
-0.17566612 0.13046847 0.83617902
-0.17510584 0.13233572 0.83351207
-0.17507286 0.13459376 0.83335507
-0.17460044 0.13650735 0.83110631
-0.17426559 0.13851796 0.82951242
-0.17313749 0.13987899 0.82414263
-0.17304769 0.14206298 0.82371521
-0.17286302 0.1441655 0.82283616
-0.17328878 0.14678025 0.82486278
-0.17284483 0.14865811 0.82274956
-0.17290072 0.1509608 0.82301563
-0.17237562 0.1527501 0.82051611
-0.17252593 0.15513302 0.82123154
-0.1715302 0.15647444 0.81649184
-0.17120361 0.158409 0.81493729
-0.17021409 0.15971301 0.8102271
-0.17036784 0.16207887 0.81095898
-0.16991416 0.16386293 0.80879939
-0.16992305 0.1660873 0.80884176
-0.16927049 0.16765675 0.80573547
-0.16943084 0.17002495 0.80649877
-0.16886497 0.17165908 0.80380523
-0.16917491 0.17418019 0.80528057
-0.16872635 0.17591855 0.80314541
-0.16800757 0.17735995 0.79972398
-0.16820976 0.17976685 0.80068642
-0.16841035 0.18217726 0.80164117
-0.16838676 0.18434751 0.80152893
-0.16767232 0.1857518 0.79812819
-0.16762267 0.18788257 0.7978918
-0.16749002 0.18991797 0.7972604
-0.16755177 0.19217287 0.79755437
-0.16717321 0.1939186 0.79575235
-0.16756237 0.19655503 0.7976048
-0.16759977 0.19878438 0.79778278
-0.16786917 0.20129293 0.79906517
-0.16737764 0.20288613 0.79672545
-0.16750598 0.20522596 0.79733634
-0.16719115 0.20702042 0.79583776
-0.16768298 0.20981598 0.79817885
-0.16714589 0.21132353 0.79562235
-0.16719677 0.21356808 0.79586446
-0.16637662 0.21469003 0.7919606
-0.16663375 0.21719471 0.79318452
-0.16659965 0.21932273 0.79302216
-0.16719426 0.22228573 0.7958526
-0.16720529 0.22448073 0.79590505
-0.1672226 0.22668457 0.79598749
-0.16662328 0.2280449 0.79313469
-0.16662605 0.23022148 0.79314786
-0.16612646 0.2316975 0.79076982
-0.16649158 0.23437777 0.79250777
-0.16594218 0.23576823 0.78989261
-0.16608934 0.23814312 0.79059309
-0.16548273 0.23943123 0.7877056
-0.16586319 0.24214458 0.78951663
-0.1655547 0.24385303 0.78804821
-0.16590442 0.24653153 0.78971285
-0.16526426 0.24773531 0.78666568
-0.16543728 0.25015196 0.7874893
-0.16483143 0.25138527 0.78460538
-0.1652676 0.25420555 0.78668159
-0.16519186 0.25624317 0.78632104
-0.16573876 0.25925273 0.78892434
-0.16541156 0.26089787 0.78736687
-0.16540147 0.26303878 0.78731883
-0.16510764 0.26472452 0.78592014
-0.1651458 0.26693919 0.78610182
-0.16453117 0.2680912 0.78317612
-0.1645364 0.27024528 0.78320104
-0.16400695 0.27151433 0.78068084
-0.16442212 0.2743457 0.78265709
-0.16402052 0.27581441 0.78074545
-0.16441172 0.27861619 0.78260756
-0.16368309 0.27951583 0.77913922
-0.16334705 0.28107205 0.77753967
-0.16260298 0.28191203 0.77399784
-0.16242082 0.28371418 0.77313077
-0.16240005 0.28579563 0.77303195
-0.16238704 0.28789026 0.77297002
-0.16204973 0.28940535 0.77136433
-0.16177453 0.2910234 0.7700544
-0.17383638 -0.23896475 0.83840215
-0.17446618 -0.2375254 0.8414396
-0.17434131 -0.23505196 0.84083736
-0.17541119 -0.23417683 0.84599739
-0.17568094 -0.23221579 0.84729832
-0.17632167 -0.23073313 0.85038859
-0.17617539 -0.22821401 0.84968305
-0.17655897 -0.22637817 0.85153306
-0.1764567 -0.22391565 0.85103983
-0.17717938 -0.22249177 0.85452527
-0.17757817 -0.22064634 0.85644859
-0.17837705 -0.21928221 0.86030155
-0.17828211 -0.21680999 0.85984367
-0.17872851 -0.21499144 0.86199659
-0.17843629 -0.21228239 0.8605873
-0.17902294 -0.21061501 0.86341661
-0.17862685 -0.20778896 0.86150628
-0.1792441 -0.20613876 0.8644833
-0.17860152 -0.20304003 0.86138415
-0.17943737 -0.20161949 0.86541539
-0.17973827 -0.19958283 0.86686659
-0.18075942 -0.1983285 0.87179154
-0.18045004 -0.19560489 0.8702994
-0.18119587 -0.19401935 0.87389654
-0.18105754 -0.19147906 0.87322938
-0.1818738 -0.18993933 0.87716615
-0.18225032 -0.18792461 0.87898207
-0.18184803 -0.18510719 0.87704188
-0.18252186 -0.18338156 0.8802917
-0.18268128 -0.18112808 0.88106054
-0.18298912 -0.17901562 0.88254529
-0.18276234 -0.17637905 0.88145149
-0.18329653 -0.17447284 0.8840279
-0.18352015 -0.17226097 0.88510638
-0.18388578 -0.17017463 0.88686985
-0.1839699 -0.16782181 0.88727552
-0.18429805 -0.16568616 0.88885814
-0.18432441 -0.16327453 0.88898528
-0.18454345 -0.16103032 0.89004171
-0.18425873 -0.1583474 0.88866848
-0.18427427 -0.15592606 0.88874346
-0.18404102 -0.15329711 0.88761854
-0.18437371 -0.15113823 0.88922304
-0.18417011 -0.14853802 0.88824111
-0.18420094 -0.14612919 0.88838983
-0.18392234 -0.14347813 0.8870461
-0.18412437 -0.14120303 0.88802046
-0.18370374 -0.13845332 0.88599181
-0.18425982 -0.13643794 0.88867378
-0.18408483 -0.1338762 0.88782984
-0.18447688 -0.13172397 0.88972068
-0.18382119 -0.12882707 0.88655829
-0.18414679 -0.12662226 0.88812864
-0.18385158 -0.12399018 0.88670486
-0.18389575 -0.12159029 0.88691789
-0.18331569 -0.11878476 0.88412035
-0.18362971 -0.11656207 0.88563478
-0.18341435 -0.11400204 0.88459617
-0.18392903 -0.11189182 0.88707834
-0.18350551 -0.10920966 0.88503575
-0.18391331 -0.10702244 0.88700253
-0.18347721 -0.10434452 0.88489926
-0.18406439 -0.10224655 0.88773119
-0.18397595 -0.099766687 0.88730466
-0.18421008 -0.097459815 0.88843387
-0.1834891 -0.094654068 0.88495666
-0.1838997 -0.092436135 0.8869369
-0.18329327 -0.08970961 0.88401216
-0.18355247 -0.087411329 0.88526225
-0.1828071 -0.084641077 0.88166744
-0.18403478 -0.082777984 0.88758844
-0.18407437 -0.08036375 0.88777936
-0.18571196 -0.078625023 0.89567739
-0.18601729 -0.076296583 0.89714992
-0.1879964 -0.074624479 0.90669507
-0.18757403 -0.071978539 0.90465802
-0.18809386 -0.069692872 0.90716511
-0.18755448 -0.067015007 0.90456372
-0.18812455 -0.06473314 0.90731311
-0.18790784 -0.062175892 0.906268
-0.18790875 -0.059693489 0.90627235
-0.18689986 -0.056903619 0.90140647
-0.18683115 -0.054414246 0.90107512
-0.18615399 -0.051757511 0.89780927
-0.18687715 -0.049489502 0.90129697
-0.18626034 -0.046865236 0.89832217
-0.18691373 -0.044560086 0.9014734
-0.1859954 -0.041883737 0.89704436
-0.1862845 -0.0394876 0.89843863
-0.18530016 -0.036830712 0.89369124
-0.18560822 -0.034439642 0.89517707
-0.18499784 -0.031882145 0.89223319
-0.18534732 -0.029493516 0.89391869
-0.18455206 -0.02692862 0.89008319
-0.18495382 -0.024543589 0.89202094
-0.18469357 -0.022068832 0.89076573
-0.18520375 -0.019682834 0.89322627
-0.18449646 -0.017170053 0.88981509
-0.18478331 -0.014755342 0.89119852
-0.18441157 -0.012289166 0.88940567
-0.18542962 -0.009907065 0.89431566
-0.1849467 -0.0074376999 0.89198655
-0.18549238 -0.0050088717 0.89461833
-0.18457001 -0.0025453786 0.8901698
-0.18469371 -0.0001068639 0.89076638
-0.18330157 0.002315769 0.88405216
-0.18323958 0.0047359942 0.88375324
-0.18266909 0.0071347198 0.88100177
-0.18344179 0.0095885796 0.88472843
-0.18322682 0.011998184 0.88369173
-0.18341911 0.014434155 0.88461906
-0.182825 0.016802933 0.88175374
-0.18256396 0.019191025 0.88049477
-0.18250915 0.02159662 0.88023043
-0.18214588 0.02396019 0.87847835
-0.18192396 0.026334623 0.87740803
-0.18125334 0.028632315 0.8741737
-0.18130194 0.031035395 0.87440807
-0.18090956 0.033358455 0.87251568
-0.18125714 0.035817362 0.87419206
-0.1807947 0.038114689 0.87196171
-0.18112962 0.040578425 0.873577
-0.18069467 0.042868368 0.87147927
-0.18128212 0.045402881 0.87431252
-0.18080509 0.047672246 0.87201178
-0.18089454 0.050085861 0.87244326
-0.18009049 0.052242637 0.86856532
-0.17951056 0.054446146 0.86576843
-0.17901455 0.056660891 0.86337614
-0.17816879 0.058747202 0.8592971
-0.17785911 0.060995013 0.85780352
-0.17684814 0.062984876 0.85292768
-0.1768302 0.065314814 0.8528412
-0.17650361 0.067526191 0.85126609
-0.176387 0.069812045 0.8507036
-0.1764106 0.072152175 0.8508175
-0.17607866 0.07434281 0.84921652
-0.1761668 0.076707579 0.84964162
-0.17576765 0.078856066 0.84771657
-0.17614068 0.081350639 0.84951568
-0.17607775 0.083647959 0.84921217
-0.17630735 0.086086452 0.8503195
-0.17595273 0.088238038 0.84860921
-0.17540413 0.090280399 0.8459633
-0.1747798 0.092268296 0.84295225
-0.17430019 0.094318002 0.84063911
-0.1735111 0.096183479 0.83683336
-0.17332478 0.098370202 0.83593476
-0.1729297 0.10043077 0.83402932
-0.17328243 0.10292507 0.83573049
-0.17269063 0.10485519 0.83287627
-0.1728224 0.10721857 0.83351183
-0.17252403 0.10931291 0.83207279
-0.17280121 0.11177162 0.83340961
-0.17245997 0.11382949 0.83176386
-0.17276312 0.11631216 0.83322591
-0.17252403 0.11843062 0.83207279
-0.17276324 0.12087744 0.8332265
-0.17279723 0.12318426 0.83339041
-0.1731469 0.12572119 0.83507687
-0.17299119 0.12789373 0.83432585
-0.17282856 0.13005695 0.83354151
-0.17255045 0.13212745 0.83220023
-0.17274557 0.13455923 0.83314127
-0.17232913 0.13651168 0.83113277
-0.17189369 0.13843785 0.82903266
-0.17079322 0.13980813 0.82372522
-0.17061727 0.14191833 0.82287657
-0.17026605 0.14387579 0.82118267
-0.17055693 0.14637505 0.82258558
-0.17040221 0.14849366 0.82183939
-0.17064039 0.15095575 0.82298809
-0.17003541 0.15266712 0.82007033
-0.16991766 0.15480638 0.81950241
-0.16898878 0.15619284 0.81502247
-0.16887517 0.15831906 0.81447458
-0.16797015 0.15968987 0.81010967
-0.16813655 0.16206953 0.81091225
-0.16775724 0.16392036 0.80908287
-0.16764328 0.16602395 0.80853325
-0.16713257 0.16772637 0.80607009
-0.16712527 0.16992715 0.80603492
-0.1667217 0.1717196 0.80408853
-0.16700466 0.17421752 0.80545318
-0.16654889 0.17594257 0.80325508
-0.16555871 0.17708395 0.7984795
-0.16599287 0.17974147 0.80057341
-0.16601595 0.18195991 0.80068475
-0.16604578 0.18418644 0.80082864
-0.16566299 0.18595059 0.79898238
-0.16583914 0.18833943 0.79983193
-0.16581482 0.19050261 0.79971468
-0.16567072 0.19252594 0.79901969
-0.16512217 0.1940701 0.79637402
-0.16510415 0.19623032 0.79628718
-0.16511479 0.19842449 0.79633844
-0.16519135 0.20069908 0.79670775
-0.16481929 0.20242466 0.79491329
-0.16481563 0.20459776 0.79489565
-0.16456364 0.20645919 0.79368031
-0.1649766 0.209157 0.795672
-0.16446272 0.21067843 0.79319358
-0.16448531 0.21288057 0.79330248
-0.16391514 0.21430834 0.79055262
-0.1642158 0.21687111 0.79200274
-0.16440244 0.21928972 0.79290283
-0.16490473 0.22213846 0.79532534
-0.1647667 0.22412948 0.79465967
-0.16490103 0.22649091 0.79530752
-0.16433033 0.22787824 0.79255509
-0.16462265 0.23045863 0.79396492
-0.16407739 0.23186313 0.79133511
-0.16454844 0.23470286 0.793607
-0.16378534 0.23577838 0.78992659
-0.16393232 0.23815589 0.79063553
-0.16341405 0.23956202 0.78813589
-0.16388053 0.24241111 0.79038566
-0.16354014 0.24406835 0.78874403
-0.16359976 0.24631885 0.78903157
-0.16284084 0.2473277 0.78537136
-0.16289081 0.24955575 0.78561234
-0.16222294 0.25067586 0.78239125
-0.16279568 0.25371179 0.78515351
-0.16257936 0.2555227 0.78411025
-0.16331653 0.2588391 0.78766561
-0.16282451 0.26021054 0.78529257
-0.163118 0.26283476 0.78670812
-0.1626426 0.26421762 0.78441525
-0.16272809 0.26650649 0.78482753
-0.16214278 0.26769018 0.78200465
-0.16233796 0.27015728 0.78294599
-0.16195002 0.27165142 0.781075
-0.16229741 0.27437842 0.78275043
-0.16188666 0.27582291 0.78076941
-0.16236235 0.27877855 0.78306365
-0.16152716 0.27947864 0.77903551
-0.16147515 0.2815221 0.77878469
-0.16069752 0.28228953 0.77503425
-0.16048604 0.28403842 0.77401429
-0.16011061 0.28548941 0.77220362
-0.15999413 0.28739557 0.77164179
-0.15972359 0.28901991 0.77033705
-0.15951376 0.29074776 0.76932502
-0.17247519 -0.24026805 0.84297478
-0.17311247 -0.238838 0.84608948
-0.17293687 -0.23628026 0.84523129
-0.17389464 -0.23526052 0.84991241
-0.17381586 -0.23282669 0.84952736
-0.17435117 -0.23120934 0.8521437
-0.17410082 -0.22854626 0.85092008
-0.17458054 -0.22683853 0.85326475
-0.17470352 -0.22465919 0.8538658
-0.17544752 -0.22326685 0.85750216
-0.17604285 -0.22166738 0.86041182
-0.1765845 -0.21998508 0.8630591
-0.17654097 -0.21756713 0.86284637
-0.17676628 -0.21547803 0.86394757
-0.17630026 -0.21254945 0.8616699
-0.1767198 -0.21068913 0.86372042
-0.17653397 -0.20810392 0.86281216
-0.17729218 -0.20662394 0.86651796
-0.17704181 -0.2039617 0.86529428
-0.17756413 -0.202186 0.86784708
-0.17738897 -0.19961147 0.86699098
-0.17847678 -0.1984459 0.87230766
-0.17843373 -0.19600897 0.87209725
-0.17916286 -0.19441105 0.8756609
-0.17891456 -0.19174612 0.87444735
-0.17958197 -0.19005693 0.87770927
-0.18031004 -0.18841328 0.88126773
-0.180278 -0.18596603 0.88111115
-0.18083368 -0.18411805 0.88382709
-0.18103321 -0.1818973 0.88480222
-0.18149468 -0.17993093 0.88705772
-0.18116391 -0.17717737 0.88544106
-0.1815111 -0.17508663 0.88713795
-0.18151791 -0.17266284 0.88717127
-0.18203044 -0.17071311 0.88967621
-0.18172471 -0.16799326 0.88818198
-0.18193969 -0.16575597 0.8892327
-0.18172899 -0.16313082 0.88820291
-0.18235511 -0.16125129 0.89126307
-0.18214698 -0.15862846 0.89024585
-0.18237108 -0.1563818 0.89134109
-0.18208176 -0.15369579 0.88992703
-0.18227519 -0.15141857 0.89087242
-0.1821201 -0.14885131 0.89011443
-0.18216728 -0.1464508 0.89034504
-0.18198344 -0.14386639 0.8894465
-0.18208385 -0.1415078 0.88993722
-0.18184604 -0.13888824 0.88877493
-0.18230045 -0.13679446 0.89099592
-0.18205258 -0.13417093 0.88978446
-0.18231714 -0.13192484 0.89107746
-0.18171841 -0.12905852 0.88815117
-0.18202576 -0.12683964 0.88965333
-0.18184821 -0.12428114 0.8887856
-0.18203045 -0.12196846 0.88967633
-0.18137209 -0.1190989 0.88645852
-0.18146403 -0.11672962 0.88690788
-0.18102625 -0.11402422 0.88476825
-0.1815363 -0.11191487 0.88726109
-0.18119232 -0.10927681 0.88557994
-0.18163049 -0.10710919 0.88772148
-0.18121968 -0.10444055 0.88571364
-0.18146592 -0.10215279 0.88691717
-0.18138748 -0.099679999 0.88653374
-0.18158688 -0.097358286 0.88750833
-0.18127616 -0.094764553 0.88598967
-0.18157183 -0.092488021 0.88743472
-0.18108884 -0.089817375 0.88507414
-0.18157734 -0.087628499 0.88746166
-0.18106186 -0.084955461 0.88494229
-0.18223354 -0.083065279 0.89066893
-0.1819744 -0.080510668 0.88940233
-0.18344799 -0.078706406 0.89660448
-0.1834098 -0.076234326 0.89641786
-0.18519843 -0.074498117 0.90515977
-0.18498713 -0.071936294 0.90412706
-0.18563616 -0.069703177 0.90729922
-0.1849854 -0.066982031 0.90411866
-0.18538804 -0.064645633 0.90608656
-0.18497403 -0.062024619 0.90406305
-0.18510199 -0.059589159 0.90468842
-0.18396586 -0.05676027 0.89913565
-0.18390875 -0.054280262 0.89885646
-0.18293023 -0.051542174 0.89407396
-0.18384978 -0.049339671 0.89856827
-0.18319422 -0.046710923 0.89536422
-0.18391532 -0.04443232 0.89888859
-0.18273857 -0.041701309 0.89313722
-0.1829282 -0.039295331 0.89406407
-0.18199117 -0.036657341 0.88948435
-0.18261696 -0.034338299 0.89254284
-0.18225944 -0.031830769 0.89079547
-0.182964 -0.029504083 0.89423901
-0.18229331 -0.026955178 0.89096099
-0.18264593 -0.024561845 0.89268446
-0.18236788 -0.022082699 0.89132547
-0.18268512 -0.019675115 0.89287597
-0.18193687 -0.017158549 0.88921893
-0.18202448 -0.014729656 0.88964713
-0.18165728 -0.012267703 0.88785243
-0.18244219 -0.009877963 0.89168864
-0.18201409 -0.0074177696 0.88959634
-0.18264955 -0.0049981433 0.89270216
-0.18214875 -0.0025456208 0.8902545
-0.18204235 -0.0001067401 0.88973439
-0.18052752 0.0023112595 0.88233072
-0.18003802 0.0047155498 0.87993824
-0.17970343 0.0071128635 0.87830293
-0.18059877 0.0095663667 0.88267887
-0.18062297 0.011986039 0.88279718
-0.18061116 0.014403487 0.88273948
-0.17994612 0.016759777 0.87948912
-0.17994416 0.019168897 0.87947953
-0.17981388 0.021562573 0.87884277
-0.17954744 0.023934614 0.87754059
-0.17924765 0.026294623 0.87607527
-0.17890039 0.028639009 0.87437809
-0.17891102 0.031036174 0.87443
-0.17862962 0.033379063 0.87305468
-0.17907241 0.035859432 0.87521881
-0.17875582 0.038189422 0.87367147
-0.17904386 0.040648203 0.87507927
-0.17838077 0.042886034 0.87183845
-0.17868577 0.045351814 0.8733291
-0.17795284 0.047548428 0.86974692
-0.17814164 0.049984042 0.87066966
-0.17729226 0.052119512 0.86651832
-0.17701906 0.054409333 0.86518306
-0.17618175 0.056510899 0.86109066
-0.17585264 0.058759857 0.85948217
-0.17557476 0.0610178 0.85812402
-0.17500044 0.063161321 0.85531706
-0.17453705 0.065330975 0.8530522
-0.17429383 0.067573577 0.85186344
-0.1743181 0.069916964 0.85198206
-0.17432556 0.072254024 0.85201854
-0.17392534 0.074416861 0.85006243
-0.17357938 0.076592915 0.84837157
-0.17311567 0.078706168 0.84610516
-0.17326337 0.081093177 0.84682709
-0.17325491 0.083408952 0.84678566
-0.17360026 0.085899569 0.84847361
-0.17331344 0.088078171 0.84707177
-0.17267628 0.090066358 0.84395766
-0.17213564 0.092089109 0.84131521
-0.17153712 0.094065651 0.83838993
-0.17092334 0.096017592 0.83539009
-0.17065887 0.098154001 0.8340975
-0.17060709 0.10040852 0.83384448
-0.17126971 0.10309165 0.83708304
-0.17077245 0.10507883 0.83465266
-0.17091532 0.10745515 0.83535093
-0.17035887 0.10938628 0.83263129
-0.1705898 0.11181861 0.83375996
-0.17007263 0.11375673 0.83123225
-0.17048125 0.11631265 0.83322942
-0.17037681 0.11852259 0.83271897
-0.17057143 0.1209418 0.8336702
-0.17044276 0.12313265 0.83304131
-0.17059171 0.12552434 0.83376932
-0.17030215 0.12759148 0.83235407
-0.17007379 0.12969753 0.83123797
-0.1699049 0.13184361 0.83041251
-0.17018795 0.13434194 0.83179593
-0.1698615 0.13635853 0.83020031
-0.16956116 0.13838772 0.82873249
-0.16861476 0.13987292 0.82410693
-0.16848849 0.14202408 0.82348973
-0.16801952 0.14387842 0.82119763
-0.16821028 0.14629398 0.82213002
-0.16811904 0.14846559 0.82168406
-0.16851817 0.15107438 0.82363486
-0.16790375 0.15277165 0.82063186
-0.16760555 0.15474442 0.81917435
-0.1669915 0.15641336 0.8161732
-0.16712795 0.15877888 0.81684011
-0.16624451 0.16016544 0.81252229
-0.16583066 0.16198705 0.81049955
-0.16509776 0.16348167 0.80691755
-0.16512941 0.16572395 0.80707222
-0.1647173 0.16751578 0.805058
-0.16500559 0.17001826 0.80646706
-0.16459435 0.1717983 0.80445713
-0.16492701 0.17435375 0.80608296
-0.16411597 0.17569372 0.80211896
-0.16318269 0.1768795 0.79755759
-0.16369857 0.17963046 0.80007893
-0.16373383 0.1818614 0.80025125
-0.16408817 0.18445198 0.80198318
-0.16378821 0.18630777 0.80051708
-0.16411251 0.18887399 0.80210209
-0.16395172 0.19088413 0.80131626
-0.16373987 0.19282982 0.80028081
-0.16321166 0.19439304 0.79769921
-0.16304561 0.19637831 0.79688764
-0.16260067 0.19801947 0.79471296
-0.16253953 0.20012128 0.7944141
-0.16234867 0.20206003 0.79348135
-0.16243221 0.2043388 0.79388958
-0.16233337 0.20638798 0.79340655
-0.16257696 0.20887445 0.79459709
-0.16234654 0.21075208 0.79347092
-0.16242214 0.21302493 0.79384041
-0.16191678 0.21453005 0.79137045
-0.16228688 0.21719329 0.79317933
-0.16231482 0.21940395 0.79331583
-0.16242576 0.22172865 0.79385805
-0.16213341 0.2235004 0.79242921
-0.16233897 0.22595735 0.7934339
-0.1619602 0.22759864 0.79158264
-0.16216049 0.23005128 0.79256153
-0.16186252 0.23179579 0.79110527
-0.16240582 0.23474827 0.7937606
-0.16183209 0.2360858 0.79095656
-0.16180585 0.23821396 0.79082829
-0.16133611 0.23968256 0.78853244
-0.16144432 0.24200493 0.78906131
-0.16115515 0.24372919 0.78764796
-0.16115557 0.24588755 0.78764999
-0.16061294 0.24721009 0.78499788
-0.16082758 0.2496938 0.78604692
-0.16022129 0.25089774 0.78308374
-0.1604615 0.25342235 0.78425777
-0.16003174 0.2548863 0.7821573
-0.16049875 0.25777903 0.7844398
-0.16016921 0.25939429 0.78282917
-0.16060668 0.26225317 0.7849673
-0.16023186 0.26378649 0.78313535
-0.16042203 0.26624751 0.78406483
-0.15998352 0.26766175 0.78192157
-0.16018416 0.27014217 0.78290224
-0.15969644 0.27145788 0.78051853
-0.15985401 0.273866 0.78128862
-0.15952876 0.27544475 0.77969897
-0.15996595 0.27834141 0.78183573
-0.15908886 0.27894533 0.77754897
-0.15901396 0.28094307 0.77718288
-0.15825589 0.28172264 0.77347779
-0.15809712 0.28355676 0.7727018
-0.15769346 0.28494421 0.77072895
-0.15767533 0.28702256 0.77064031
-0.15724912 0.28835216 0.76855719
-0.15697572 0.28995258 0.76722091
-0.17073698 -0.24107443 0.84580392
-0.17129107 -0.2395322 0.84854871
-0.17083082 -0.23657027 0.84626871
-0.17185302 -0.23565364 0.8513326
-0.17188841 -0.2333695 0.8515079
-0.17254674 -0.23192169 0.85476917
-0.17241617 -0.22940634 0.85412228
-0.17296459 -0.22778876 0.85683906
-0.17313802 -0.22566754 0.85769826
-0.1738337 -0.22421522 0.86114454
-0.1742392 -0.22237368 0.86315334
-0.17468181 -0.22056797 0.86534595
-0.17434905 -0.21778174 0.86369753
-0.17467558 -0.21581911 0.86531508
-0.17420065 -0.21286826 0.86296237
-0.17506284 -0.21154606 0.86723346
-0.17452791 -0.20853117 0.86458355
-0.1752733 -0.20704316 0.86827606
-0.17489402 -0.20422168 0.8663972
-0.17549036 -0.20253646 0.86935139
-0.17552334 -0.20019253 0.86951476
-0.17640156 -0.19880027 0.87386531
-0.17642608 -0.19643365 0.87398678
-0.17699675 -0.19466701 0.87681377
-0.17672952 -0.19197474 0.87548995
-0.17755455 -0.19046138 0.87957704
-0.17849812 -0.18905117 0.88425136
-0.17856829 -0.18670216 0.88459891
-0.17909104 -0.18481831 0.88718855
-0.17926386 -0.18256389 0.88804471
-0.17970066 -0.18057002 0.89020848
-0.17942826 -0.17786132 0.88885909
-0.17975424 -0.17574504 0.89047396
-0.1795978 -0.17315479 0.88969898
-0.1799999 -0.17109971 0.89169091
-0.17957896 -0.16826254 0.88960564
-0.17979252 -0.1660227 0.89066362
-0.17956004 -0.16337124 0.88951188
-0.18019922 -0.16150734 0.89267832
-0.18010154 -0.15897568 0.89219445
-0.18028337 -0.15668954 0.89309514
-0.17986512 -0.15388513 0.89102328
-0.18017232 -0.15170287 0.8925451
-0.18010521 -0.14920217 0.89221257
-0.18037972 -0.14698167 0.89357245
-0.18006009 -0.14427765 0.89198911
-0.18045367 -0.1421441 0.89393884
-0.18010099 -0.13942218 0.89219171
-0.18046345 -0.13725372 0.89398724
-0.17977981 -0.134294 0.89060062
-0.18007775 -0.13207275 0.89207655
-0.1795527 -0.12925099 0.88947558
-0.17980234 -0.12699062 0.89071226
-0.17938593 -0.12426209 0.8886494
-0.17961225 -0.12198137 0.88977057
-0.17933995 -0.11936264 0.8884216
-0.17951153 -0.11704072 0.88927162
-0.17889357 -0.11421007 0.88621032
-0.17922823 -0.11199144 0.88786817
-0.17884061 -0.10932221 0.88594794
-0.17943102 -0.1072481 0.8888728
-0.17919371 -0.10467444 0.88769716
-0.17947486 -0.10240304 0.88908994
-0.17921694 -0.099823758 0.88781226
-0.17911153 -0.09733434 0.88729006
-0.17904107 -0.094866313 0.88694102
-0.17909063 -0.092462152 0.88718653
-0.17859825 -0.08978422 0.88474739
-0.1789929 -0.087553523 0.88670236
-0.17895879 -0.085108206 0.88653338
-0.17997056 -0.083147034 0.89154559
-0.17967372 -0.080571562 0.89007503
-0.18055455 -0.078516275 0.89443856
-0.18073419 -0.076141678 0.89532846
-0.18226308 -0.074312314 0.90290231
-0.18236686 -0.071879752 0.90341645
-0.18288885 -0.06960354 0.90600234
-0.18217468 -0.066859476 0.90246445
-0.18250357 -0.064503446 0.90409368
-0.18200932 -0.061858743 0.9016453
-0.18246391 -0.059537046 0.90389723
-0.18143091 -0.05673781 0.89877987
-0.18137486 -0.054258872 0.89850223
-0.18038322 -0.051514264 0.89358979
-0.18117279 -0.049281079 0.89750123
-0.18069789 -0.046699677 0.89514863
-0.18107748 -0.044340406 0.8970291
-0.17969508 -0.04156328 0.89018095
-0.17950545 -0.039083373 0.88924152
-0.17894036 -0.036531962 0.88644207
-0.17943037 -0.034196977 0.88886952
-0.17930682 -0.031740081 0.8882575
-0.17982833 -0.029391972 0.89084101
-0.17968544 -0.026930131 0.89013314
-0.17980513 -0.024507962 0.89072609
-0.17967859 -0.02205232 0.89009923
-0.17972291 -0.019618765 0.89031875
-0.1792663 -0.017136125 0.88805681
-0.17935611 -0.014710692 0.8885017
-0.17925268 -0.012269596 0.88798934
-0.17985672 -0.0098701306 0.89098161
-0.17934477 -0.0074081742 0.88844556
-0.17988481 -0.0049892897 0.89112079
-0.17933135 -0.002540258 0.88837904
-0.17916054 -0.00010647599 0.88753283
-0.17768243 0.0023057058 0.88021052
-0.17733516 0.00470779 0.87849021
-0.17708112 0.0071041887 0.87723178
-0.17784187 0.0095481761 0.8810004
-0.17789175 0.011964997 0.88124746
-0.17785099 0.014375848 0.88104558
-0.17738068 0.01674504 0.87871575
-0.17757149 0.019172851 0.87966096
-0.17745213 0.02156814 0.87906969
-0.17706218 0.02392363 0.8771379
-0.17663433 0.026262902 0.87501842
-0.17640364 0.028622551 0.87387562
-0.17663084 0.031056445 0.87500113
-0.17660367 0.033448335 0.87486655
-0.17692716 0.035910655 0.87646908
-0.17618433 0.038150858 0.8727892
-0.17634796 0.040579479 0.87359977
-0.17560151 0.042790782 0.86990201
-0.17600515 0.045277681 0.87190157
-0.17511289 0.047424573 0.86748141
-0.17518191 0.049820639 0.86782336
-0.17447908 0.051988591 0.86434168
-0.17448901 0.054359514 0.86439085
-0.17365761 0.056457188 0.86027223
-0.17355801 0.058780137 0.85977882
-0.17308219 0.060967859 0.8574217
-0.17271245 0.063181482 0.85559005
-0.17190155 0.065217689 0.85157299
-0.17163 0.067443825 0.85022771
-0.17124858 0.069617942 0.84833831
-0.17120828 0.071924999 0.84813863
-0.17081791 0.074079156 0.84620482
-0.17072824 0.076357193 0.84576058
-0.17070891 0.078665212 0.84566486
-0.17089164 0.081068568 0.84657007
-0.17098825 0.083434843 0.84704858
-0.17101249 0.085767463 0.84716874
-0.17077686 0.087966882 0.84600145
-0.17052619 0.090151951 0.8447597
-0.16988067 0.092116103 0.84156185
-0.16956586 0.094246551 0.8400023
-0.16909461 0.09627939 0.83766782
-0.16886811 0.098442115 0.83654583
-0.16859469 0.10057069 0.83519131
-0.16898046 0.10309403 0.83710241
-0.16863684 0.10517292 0.8354001
-0.16880651 0.1075696 0.83624065
-0.1683297 0.10955015 0.83387864
-0.16840313 0.11188331 0.83424234
-0.16772901 0.11371165 0.83090281
-0.16791975 0.11611979 0.83184779
-0.16797149 0.11843508 0.83210409
-0.16826873 0.12092822 0.83357656
-0.16796306 0.12298795 0.8320623
-0.16803925 0.12532416 0.83243972
-0.16757531 0.12725231 0.83014148
-0.16748029 0.12945299 0.82967073
-0.16717403 0.13148497 0.82815361
-0.16746794 0.13398883 0.82960957
-0.16723216 0.13606967 0.82844156
-0.16706941 0.13820451 0.82763529
-0.16635115 0.13986787 0.82407719
-0.16627216 0.14205791 0.82368588
-0.16581114 0.14391422 0.82140201
-0.1659146 0.14625564 0.82191455
-0.16580452 0.14840871 0.82136929
-0.16605973 0.15089072 0.82263356
-0.16567989 0.15279399 0.82075185
-0.16529442 0.15468168 0.81884229
-0.16477445 0.15643124 0.81626648
-0.16486089 0.15875061 0.81669468
-0.16426153 0.16040264 0.81372559
-0.16395393 0.16232724 0.81220174
-0.16302465 0.16361958 0.80759823
-0.16292302 0.16572857 0.80709475
-0.16249838 0.16750188 0.80499119
-0.1628501 0.17007443 0.80673355
-0.16270363 0.1721295 0.80600798
-0.16269033 0.17432328 0.80594206
-0.16177207 0.17553474 0.80139315
-0.16087942 0.17674942 0.79697108
-0.16146401 0.17958288 0.79986703
-0.16170317 0.18204333 0.8010518
-0.16226181 0.18487427 0.80381924
-0.16164069 0.18636018 0.80074227
-0.1615857 0.18848965 0.80046988
-0.16147585 0.19055289 0.79992574
-0.16175754 0.19308048 0.80132115
-0.16123329 0.1946428 0.79872411
-0.16081591 0.19632134 0.79665649
-0.16000967 0.19750854 0.79266244
-0.16019496 0.19991127 0.79358041
-0.15994607 0.20177127 0.79234743
-0.16022167 0.20429328 0.79371268
-0.16009592 0.20630558 0.79308975
-0.16053912 0.20905535 0.79528528
-0.16040061 0.21105176 0.79459918
-0.16058868 0.21347854 0.7955308
-0.16031106 0.21528505 0.79415554
-0.16058747 0.21783555 0.79552484
-0.16006817 0.21930341 0.7929523
-0.15986994 0.22120138 0.79197025
-0.15945856 0.22279617 0.78993237
