# .PCD v0.7 - Point Cloud Data file format
VERSION 0.7
FIELDS x y z
SIZE 4 4 4
TYPE F F F
COUNT 1 1 1
WIDTH 56
HEIGHT 1
VIEWPOINT 0 0 0 1 0 0 0
POINTS 56
DATA ascii
-0.63415325 -0.52253121 1.5889392
-0.63359606 -0.51772308 1.587543
-0.62924999 -0.50985265 1.5766535
-0.62429035 -0.50154895 1.5642266
-0.63442832 -0.53514051 1.600615
-0.63554001 -0.53168571 1.6034197
-0.63458407 -0.52650011 1.6010079
-0.63415414 -0.52176046 1.5999233
-0.63181341 -0.51546782 1.5940177
-0.6254915 -0.50598705 1.578068
-0.61759502 -0.49533078 1.5581459
-0.63222593 -0.53699422 1.6061594
-0.63467407 -0.53465652 1.6123788
-0.63464767 -0.53021747 1.6123118
-0.63486487 -0.52598053 1.6128637
-0.6332733 -0.52025461 1.6088202
-0.62794381 -0.51150608 1.5952808
-0.61734122 -0.49857306 1.5683451
-0.62997204 -0.5388298 1.6116498
-0.63442534 -0.53819263 1.6230427
-0.63591856 -0.53500259 1.6268628
-0.63707304 -0.53150904 1.6298163
-0.63495594 -0.52529281 1.6244001
-0.63037276 -0.51708329 1.612675
-0.61965555 -0.5039494 1.5852573
-0.62233937 -0.54045063 1.6033601
-0.62758332 -0.54057521 1.6168703
-0.63260579 -0.54043663 1.62981
-0.63383746 -0.53701532 1.6329832
-0.63556623 -0.53399432 1.6374371
-0.63366711 -0.52792645 1.6325443
-0.6309793 -0.5212338 1.6256195
-0.6195417 -0.50741291 1.5961523
-0.62368673 -0.54103744 1.6182528
-0.62860364 -0.54083467 1.6310104
-0.62973607 -0.53733283 1.6339487
-0.63133073 -0.53420603 1.6380862
-0.62926859 -0.52798831 1.6327357
-0.62438536 -0.51945293 1.6200653
-0.61269915 -0.50537562 1.5897437
-0.61634642 -0.53849739 1.6106555
-0.62179464 -0.5388062 1.6248931
-0.62213761 -0.53464955 1.6257893
-0.62210959 -0.53017193 1.6257161
-0.61636698 -0.5208655 1.6107093
-0.60802162 -0.50946045 1.5889009
-0.6000495 -0.49848497 1.5680679
-0.60094869 -0.52883035 1.5817412
-0.60521954 -0.52822471 1.5929823
-0.60464245 -0.52336133 1.5914634
-0.6010403 -0.51590961 1.5819823
-0.59681904 -0.50798291 1.5708716
-0.59348553 -0.50086629 1.5620975
-0.59029406 -0.51893985 1.5649817
-0.58890557 -0.5134421 1.5613005
-0.58872634 -0.50901002 1.5608253
