# .PCD v0.7 - Point Cloud Data file format
VERSION 0.7
FIELDS x y z
SIZE 4 4 4
TYPE F F F
COUNT 1 1 1
WIDTH 159
HEIGHT 1
VIEWPOINT 0 0 0 1 0 0 0
POINTS 159
DATA ascii
-0.017240843 0.042514399 0.8186897
-0.017165806 0.04456237 0.81512648
-0.017070696 0.046536103 0.81061018
-0.015090708 0.045033604 0.8237462
-0.015002256 0.047013041 0.81891793
-0.014920296 0.04898734 0.81444407
-0.014916056 0.051203918 0.81421256
nan nan nan
nan nan nan
nan nan nan
-0.013237976 0.048778452 0.84966958
-0.012987599 0.050139491 0.83359927
-0.012919392 0.052147791 0.82922143
-0.012855898 0.054151963 0.82514614
nan nan nan
nan nan nan
-0.013805601 0.055832088 1.0751452
nan nan nan
nan nan nan
nan nan nan
nan nan nan
nan nan nan
nan nan nan
nan nan nan
-0.010963893 0.05339133 1.0854026
-0.011157431 0.057359714 1.1045624
-0.011029286 0.059692085 1.0918764
-0.010877588 0.061821081 1.0768585
-0.010710037 0.063773409 1.0602714
-0.010470925 0.065189324 1.0365998
nan nan nan
nan nan nan
-0.0076325918 0.04531952 1.0367889
-0.0079058623 0.049884029 1.0739092
-0.0081058117 0.054162007 1.1010698
-0.0081434511 0.05744385 1.1061826
-0.0080413204 0.059715759 1.0923095
-0.0079372711 0.061896697 1.0781757
-0.0078049144 0.063768923 1.0601968
-0.0076422654 0.065283857 1.038103
-0.0074132625 0.06608624 1.0069959
-0.007162191 0.066513233 0.97289109
-0.006875887 0.066413067 0.93400037
-0.0050081043 0.04735985 1.0834662
-0.0050721732 0.05097181 1.097327
-0.0050900881 0.054168545 1.1012027
-0.0050626891 0.056877431 1.0952752
-0.0050029075 0.059170842 1.0823419
-0.0049260799 0.061181679 1.0657208
-0.0048727021 0.063406594 1.0541729
-0.0047893389 0.065160282 1.0361379
-0.0046492117 0.066009231 1.0058224
-0.0044940091 0.066469096 0.97224545
-0.0043424349 0.066800818 0.93945354
-0.0020360975 0.044307031 1.0813988
-0.0020489139 0.047567025 1.0882058
-0.0020608853 0.05084347 1.0945641
-0.0020516727 0.053601295 1.089671
-0.002036944 0.056180187 1.0818485
-0.0019925225 0.057854064 1.0582557
-0.0019791767 0.060346194 1.0511675
-0.0019553846 0.062465776 1.0385312
-0.0019286349 0.06441734 1.0243241
-0.0018729583 0.065282799 0.99475342
-0.0018158655 0.065934829 0.96443069
-0.001762219 0.066550866 0.9359383
0.00091170089 0.040690608 1.0642937
0.00091976003 0.043991666 1.0737017
0.00092124281 0.047008693 1.0754327
0.00092099636 0.049941435 1.075145
0.00091464538 0.05252206 1.067731
0.00090636342 0.054945003 1.0580629
0.00089449907 0.057086352 1.0442128
0.00088821352 0.059525691 1.0368752
0.00087610312 0.061515834 1.0227379
0.00086481898 0.063489184 1.0095651
0.00084180856 0.064491995 0.98270339
0.00082196272 0.065600187 0.9595359
0.00080003001 0.066408224 0.9339323
0.0037467815 0.042688891 1.041905
0.003758016 0.045679715 1.0450292
0.0037718653 0.048721418 1.0488803
0.0037386946 0.051141053 1.0396563
0.0037373824 0.053970203 1.0392914
0.003697491 0.056210853 1.0281984
0.003671892 0.058618896 1.0210798
0.0036057087 0.060309123 1.0026755
0.0035511747 0.062102228 0.98751068
0.0034723228 0.063368469 0.96558362
0.0034011062 0.064659722 0.94577968
0.0033300114 0.065844871 0.9260096
0.0064130444 0.041473124 1.0122318
0.0064722239 0.044654399 1.0215727
0.0065075373 0.047711864 1.0271466
0.0064683608 0.050221521 1.020963
0.0064519704 0.052884065 1.0183759
0.0063895741 0.055135448 1.0085273
0.0063337889 0.057392783 0.99972218
0.0062275822 0.059123181 0.98295856
0.0061605764 0.061150845 0.97238237
0.0060338876 0.062502347 0.9523859
0.005931756 0.064009272 0.93626553
0.0058138552 0.065250888 0.91765606
0.0090369945 0.040800326 0.99581087
0.0090919733 0.043793123 1.0018691
0.0091585694 0.04687858 1.0092075
0.0091217998 0.04944396 1.0051558
0.0090781031 0.051947501 1.0003407
0.0089854784 0.05412991 0.99013412
0.0089226011 0.056444582 0.9832055
0.0087756813 0.058164265 0.96701598
0.0086806109 0.060154554 0.95653993
0.0085280221 0.061671495 0.93972576
0.0084004411 0.06328471 0.92566735
0.0082583409 0.064707123 0.91000885
0.011536548 0.040008131 0.97647583
0.011659124 0.04313666 0.98685092
0.011686908 0.045949336 0.98920262
0.011657896 0.048538428 0.98674703
0.011581025 0.0509037 0.98024046
0.011526595 0.053337168 0.97563344
0.011424231 0.055512473 0.96696913
0.011225992 0.057152204 0.95018983
0.011107452 0.059124231 0.9401564
0.0109393 0.060765702 0.92592365
0.010847129 0.062768869 0.91812211
0.010660932 0.064163394 0.90236205
0.014013273 0.042087592 0.96285111
0.014045255 0.044827361 0.96504861
0.013995363 0.047302447 0.96162057
0.013981491 0.049887277 0.96066743
0.013897123 0.052202068 0.95487046
0.013808448 0.054468118 0.94877762
0.013567295 0.05607063 0.932208
0.013462476 0.058171451 0.92500591
0.013276396 0.059866395 0.91222036
0.013187997 0.061950136 0.90614647
0.016033962 0.040528029 0.92717248
0.0161335 0.043335345 0.93292832
0.016114926 0.045838237 0.93185431
0.016139407 0.048464529 0.93326992
0.016087625 0.050857488 0.93027562
0.016075887 0.053366974 0.92959684
0.015914356 0.055351753 0.92025626
0.015839817 0.05760169 0.91594595
0.015587999 0.059155263 0.90138441
0.01800965 0.036834016 0.89900547
0.01815249 0.039608486 0.9061358
0.018283125 0.042393718 0.91265684
0.018268481 0.044857945 0.91192579
0.018285422 0.047400046 0.91277146
0.01825197 0.049809258 0.91110164
0.01833595 0.052545849 0.91529369
0.018254746 0.054809451 0.91124016
0.018169567 0.057038359 0.9069882
0.020376455 0.041563805 0.89479041
0.020415166 0.044098672 0.89649034
0.020453593 0.046642203 0.8981778
0.020452414 0.049099892 0.89812601
