# .PCD v0.7 - Point Cloud Data file format
VERSION 0.7
FIELDS x y z
SIZE 4 4 4
TYPE F F F
COUNT 1 1 1
WIDTH 184
HEIGHT 1
VIEWPOINT 0 0 0 1 0 0 0
POINTS 184
DATA ascii
-0.038061336 0.15956004 0.83259273
-0.038135514 0.16215631 0.8342154
-0.036076561 0.15858066 0.83948243
-0.036215972 0.16150211 0.84272647
-0.036322847 0.16429412 0.84521335
-0.036256932 0.1663072 0.84367955
-0.036106199 0.16791743 0.84017211
-0.033976246 0.15720361 0.84443867
-0.034632873 0.16259974 0.8607583
-0.03520583 0.16768678 0.87499845
-0.03556158 0.17180248 0.8838402
-0.03539075 0.1733868 0.87959445
-0.034691356 0.1723223 0.86221182
-0.033962503 0.17101425 0.84409708
-0.031932607 0.15620948 0.85163063
-0.032606021 0.16188593 0.86959034
-0.033694699 0.16975287 0.89862496
-0.034363639 0.17563361 0.9164654
-0.034759238 0.18019503 0.92701584
-0.034594309 0.1818675 0.9226172
-0.03380904 0.18020932 0.90167439
-0.032672767 0.17653984 0.87137043
-0.03193529 0.17488824 0.85170215
-0.031401616 0.1742599 0.83746934
-0.030920498 0.16318043 0.88963515
-0.031619973 0.16936409 0.90976024
-0.032303013 0.17556871 0.92941248
-0.032359511 0.17842633 0.93103796
-0.03251411 0.18184149 0.93548602
-0.032400128 0.18375778 0.93220663
-0.032127753 0.18474525 0.92436987
-0.03141949 0.18314895 0.90399194
-0.030869374 0.18237534 0.88816422
-0.030355552 0.18173231 0.87338072
-0.028850386 0.16281448 0.90109813
-0.029547323 0.16927575 0.92286593
-0.029739769 0.17292288 0.9288767
-0.029829629 0.17599767 0.9316833
-0.029710893 0.17783928 0.92797476
-0.029790565 0.18086515 0.93046325
-0.029720981 0.18298571 0.92828989
-0.029699784 0.18539639 0.9276278
-0.029403243 0.18606111 0.91836584
-0.029261323 0.18766673 0.91393316
-0.029077062 0.18897291 0.90817803
-0.02870803 0.1890309 0.89665186
-0.026806409 0.16543455 0.91559893
-0.026986547 0.16907138 0.92175174
-0.027076619 0.17216921 0.92482823
-0.02711153 0.17492799 0.92602068
-0.026971534 0.17654842 0.92123896
-0.027023807 0.17941917 0.92302442
-0.026986495 0.18169653 0.92174995
-0.027056048 0.18469644 0.92412561
-0.026823521 0.18561895 0.91618341
-0.026744829 0.1875769 0.91349566
-0.026537059 0.18860273 0.90639901
-0.02644871 0.19044961 0.90338141
-0.024159117 0.161994 0.91035956
-0.024219941 0.164902 0.91265154
-0.024346789 0.16827892 0.91743141
-0.024411321 0.17124487 0.91986305
-0.024438825 0.17396058 0.92089945
-0.024335641 0.17573823 0.91701132
-0.02435299 0.17837742 0.91766506
-0.024273319 0.18029955 0.91466296
-0.024308966 0.18307368 0.91600621
-0.024169009 0.18451457 0.91073233
-0.024103986 0.18650636 0.90828216
-0.023890039 0.18731706 0.90022022
-0.023765335 0.18879253 0.89552116
-0.021475373 0.15810241 0.90238219
-0.021650907 0.16188695 0.90975803
-0.021658679 0.16443822 0.91008466
-0.02174696 0.16761176 0.91379416
-0.021685936 0.16963771 0.91122997
-0.021723144 0.17242932 0.9127934
-0.021649549 0.17433725 0.90970099
-0.02164501 0.17679226 0.90951025
-0.021560581 0.17858453 0.90596265
-0.021608209 0.18146636 0.90796393
-0.021551548 0.18347131 0.90558302
-0.021510823 0.18560074 0.90387183
-0.021293022 0.18617254 0.8947199
-0.021180997 0.18763125 0.89001274
-0.018902559 0.15726402 0.89759707
-0.019087395 0.16128479 0.90637404
-0.019092506 0.16381162 0.90661681
-0.019132838 0.16664654 0.9085319
-0.01909662 0.16881527 0.90681213
-0.019139288 0.17168218 0.90883827
-0.019103656 0.17384766 0.90714622
-0.019034913 0.17569824 0.90388197
-0.018935742 0.17724609 0.89917272
-0.01895543 0.17989619 0.90010768
-0.018955095 0.18235879 0.90009177
-0.018908957 0.18437468 0.89790088
-0.018749109 0.18525502 0.89031041
-0.018662635 0.18682832 0.88620412
-0.016307658 0.15596364 0.89017504
-0.016452007 0.15980436 0.89805448
-0.016465208 0.16239475 0.8987751
-0.016512483 0.16533025 0.90135568
-0.01650263 0.16769935 0.90081787
-0.016554255 0.17069943 0.90363586
-0.016527364 0.17289361 0.90216798
-0.016480867 0.1748717 0.89962983
-0.016399665 0.17646246 0.89519733
-0.016415006 0.17908217 0.89603472
-0.016395332 0.18131925 0.89496082
-0.016369401 0.18348029 0.89354527
-0.016253905 0.18461633 0.88724089
-0.013867256 0.15838167 0.89005941
-0.013888177 0.16106258 0.89140218
-0.01393249 0.16402623 0.8942464
-0.013937291 0.16653335 0.89455456
-0.013971219 0.16939531 0.89673221
-0.013953343 0.17163201 0.89558482
-0.013936383 0.17387383 0.89449626
-0.01387203 0.17551006 0.89036584
-0.013868922 0.17790931 0.89016634
-0.01382901 0.17982888 0.88760459
-0.01382249 0.18217452 0.88718617
-0.013736704 0.18345924 0.88168007
-0.013713315 0.18555807 0.88017881
-0.011329507 0.15700331 0.88231337
-0.01136254 0.15988517 0.88488579
-0.011397993 0.16281572 0.88764685
-0.011392678 0.16517033 0.8872329
-0.011402246 0.16774163 0.88797802
-0.011393886 0.17004946 0.88732702
-0.011420498 0.17288309 0.88939941
-0.011398965 0.174989 0.88772249
-0.011398203 0.17740904 0.88766319
-0.011326496 0.17870934 0.88207877
-0.01132738 0.18113993 0.88214773
-0.011255253 0.18238775 0.87653065
-0.0088764699 0.15877689 0.87875205
-0.0089199869 0.16197442 0.88306016
-0.0088974088 0.1639774 0.88082492
-0.0089249806 0.16690601 0.88355452
-0.0089009032 0.16886967 0.88117087
-0.0089306291 0.17185563 0.88411367
-0.0088984286 0.17364925 0.88092589
-0.0089112157 0.17631552 0.88219184
-0.0088493675 0.17749175 0.87606895
-0.0088548427 0.18000302 0.87661099
-0.0087987063 0.1812481 0.87105364
-0.0064208051 0.15759003 0.87218338
-0.0064428113 0.16052766 0.87517267
-0.0064358287 0.16274858 0.87422413
-0.0064684278 0.16597997 0.87865233
-0.0064479606 0.16785422 0.87587214
-0.0064676572 0.1707737 0.87854761
-0.0064464449 0.17261246 0.8756662
-0.0064754928 0.17579992 0.87961203
-0.0064284755 0.17691563 0.87322533
-0.0064281519 0.17929877 0.87318134
-0.0040283655 0.15985528 0.87150693
-0.0040264856 0.16216701 0.87110025
-0.0040429579 0.16522655 0.87466395
-0.0040266574 0.16694684 0.87113744
-0.0040291352 0.1694375 0.87167352
-0.0040164124 0.17128283 0.86892098
-0.0040302332 0.17426078 0.87191099
-0.0040104869 0.17578386 0.86763906
-0.0040134317 0.17829153 0.86827612
-0.001632065 0.15899408 0.86681181
-0.001633639 0.16152428 0.86764771
-0.0016366813 0.1642064 0.86926353
-0.0016289316 0.16579893 0.86514759
-0.0016296344 0.16824153 0.86552083
-0.0016277059 0.17041068 0.86449659
-0.0016333375 0.17337672 0.86748761
-0.0016274675 0.17512153 0.86436993
0.00073793012 0.1603684 0.86143869
0.00073916937 0.16300154 0.8628853
0.00073659007 0.16478835 0.85987431
0.00073916127 0.1677274 0.86287588
0.00073839404 0.16991465 0.8619802
0.00073847431 0.17229474 0.8620739
0.00073583261 0.17403157 0.85899007
0.0030779652 0.16403066 0.85592061
0.003094651 0.16727735 0.8605606
