# .PCD v0.7 - Point Cloud Data file format
VERSION 0.7
FIELDS x y z
SIZE 4 4 4
TYPE F F F
COUNT 1 1 1
WIDTH 66
HEIGHT 1
VIEWPOINT 0 0 0 1 0 0 0
POINTS 66
DATA ascii
0.58943802 -0.6179176 1.5444796
0.6074301 -0.64089894 1.5802801
0.6046406 -0.63364649 1.573023
0.60048515 -0.6250121 1.5622122
0.59750241 -0.61764914 1.5544524
0.59424907 -0.61005092 1.5459886
0.61684304 -0.64185983 1.5934125
0.61486644 -0.63545197 1.5883065
0.61177665 -0.62792945 1.5803251
0.60492355 -0.61661464 1.5626223
0.62346351 -0.65295208 1.5991976
0.6237964 -0.64891738 1.6000514
0.62491208 -0.64568686 1.6029131
0.62382108 -0.64017624 1.6001148
0.62328076 -0.63524199 1.5987288
0.61809605 -0.62561458 1.5854299
0.60949612 -0.61262727 1.5633709
0.62242997 -0.65166426 1.5854063
0.62569338 -0.65071493 1.5937185
0.62768501 -0.64840645 1.5987915
0.62967932 -0.6460728 1.6038712
0.62889898 -0.64088386 1.6018835
0.6286127 -0.63620579 1.6011544
0.6259985 -0.62919194 1.5944957
0.62008214 -0.61891866 1.5794261
0.62338799 -0.65246433 1.5768436
0.62292057 -0.64765865 1.5756613
0.62722987 -0.64779276 1.5865616
0.62968946 -0.64596969 1.5927831
0.63343018 -0.64541781 1.6022451
0.63172644 -0.63930434 1.5979356
0.63198912 -0.63519084 1.5986
0.63044637 -0.62927163 1.5946976
0.62926584 -0.62373286 1.5917115
0.62579674 -0.65047795 1.5720431
0.62556022 -0.64592719 1.5714489
0.62807637 -0.64420301 1.5777696
0.63086134 -0.64271814 1.5847657
0.63450617 -0.64206499 1.5939218
0.6343739 -0.63756555 1.5935894
0.63517189 -0.63399643 1.595594
0.63369715 -0.62816352 1.5918894
0.6277476 -0.64804608 1.5661658
0.62836468 -0.6443885 1.5677054
0.63058829 -0.64235896 1.5732532
0.63257694 -0.64006126 1.5782146
0.63598299 -0.63916087 1.5867124
0.63643467 -0.63526499 1.5878392
0.63841313 -0.6328764 1.5927752
0.63777405 -0.62788391 1.5911808
0.63059849 -0.64657009 1.5625987
0.63095009 -0.64264756 1.56347
0.63372022 -0.64116716 1.5703342
0.63502795 -0.63817948 1.5735747
0.63803387 -0.63686919 1.5810232
0.63892454 -0.63342106 1.5832304
0.64056307 -0.63069707 1.5872905
0.63255507 -0.64420325 1.5568786
0.632658 -0.64004236 1.5571319
0.63596773 -0.6391027 1.5652779
0.63777751 -0.63662118 1.5697323
0.64065474 -0.63517356 1.5768138
0.6403175 -0.63052189 1.5759839
0.63514376 -0.63825363 1.5527803
0.63841647 -0.6372667 1.5607814
0.63921219 -0.63378 1.5627267
