# .PCD v0.7 - Point Cloud Data file format
VERSION 0.7
FIELDS x y z
SIZE 4 4 4
TYPE F F F
COUNT 1 1 1
WIDTH 91
HEIGHT 1
VIEWPOINT 0 0 0 1 0 0 0
POINTS 91
DATA ascii
-0.67792761 -0.03502604 1.5895159
-0.6751833 -0.030547459 1.5830814
-0.67541778 -0.026219768 1.5836312
-0.67605937 -0.021902258 1.5851355
-0.6774022 -0.017594719 1.588284
-0.67481995 -0.013193189 1.5822294
-0.67705369 -0.03958394 1.5977292
-0.67688113 -0.035198051 1.5973221
-0.67462367 -0.030719453 1.5919948
-0.67579716 -0.026404092 1.594764
-0.6761443 -0.022046616 1.5955832
-0.67543453 -0.017657025 1.5939083
-0.67195439 -0.013222094 1.5856957
-0.6767658 -0.044228088 1.6074414
-0.67634851 -0.039800003 1.6064502
-0.67640442 -0.035402127 1.6065831
-0.67621976 -0.030992489 1.6061444
-0.67714065 -0.026628731 1.6083318
-0.67684245 -0.02221298 1.6076235
-0.6746543 -0.017751385 1.6024263
-0.67027873 -0.01327494 1.5920335
-0.66618884 -0.0088592349 1.5823191
-0.67184365 -0.048594099 1.6062015
-0.67360365 -0.044309746 1.6104093
-0.67382991 -0.03991149 1.6109501
-0.67565686 -0.035594601 1.6153178
-0.67623043 -0.031195963 1.6166892
-0.67560393 -0.026742302 1.6151913
-0.67531484 -0.022307999 1.6145003
-0.6738748 -0.017846998 1.6110574
-0.67180079 -0.013392223 1.606099
-0.66683906 -0.0089259604 1.5942369
-0.67189121 -0.048917919 1.6169049
-0.67321736 -0.04457628 1.6200962
-0.67241603 -0.040090311 1.6181679
-0.67362559 -0.035721544 1.6210786
-0.67416239 -0.031305589 1.6223704
-0.67404401 -0.026856449 1.6220856
-0.67352158 -0.022395434 1.6208283
-0.67246264 -0.017927008 1.6182799
-0.67062634 -0.013456945 1.613861
-0.66672772 -0.0089833047 1.604479
-0.66140318 -0.0045512565 1.5916654
-0.67083412 -0.049165078 1.6250743
-0.67299914 -0.044857554 1.630319
-0.6724475 -0.040358249 1.6289827
-0.67291468 -0.03592065 1.6301143
-0.67227048 -0.031424902 1.6285537
-0.67169207 -0.026940344 1.6271527
-0.66999316 -0.022425955 1.6230371
-0.66951835 -0.017966965 1.6218868
-0.66677815 -0.013468517 1.6152488
-0.66576135 -0.049119264 1.62356
-0.67073268 -0.045005154 1.6356833
-0.67161226 -0.0405774 1.6378284
-0.67188418 -0.036105245 1.6384914
-0.67064512 -0.031558357 1.6354698
-0.67140317 -0.027108656 1.6373185
-0.66954201 -0.02256057 1.6327797
-0.66805959 -0.018047586 1.6291646
-0.66191024 -0.013459509 1.6141685
-0.66517591 -0.044932477 1.633042
-0.66877192 -0.040677544 1.6418704
-0.66983026 -0.03623696 1.6444687
-0.66853791 -0.031670779 1.6412959
-0.66837138 -0.027167739 1.640887
-0.66578323 -0.022584798 1.634533
-0.66050863 -0.017963605 1.6215836
-0.64708942 -0.013246633 1.5886388
-0.63133687 -0.0086780898 1.5499654
-0.66174716 -0.040522806 1.6356246
-0.66500574 -0.036219552 1.6436788
-0.66464049 -0.031699341 1.642776
-0.66327345 -0.027143072 1.6393971
-0.65413082 -0.022339769 1.6167996
-0.63734895 -0.017451108 1.5753201
-0.62184137 -0.012815971 1.5369904
-0.61670822 -0.0085344082 1.524303
-0.63805199 -0.039338164 1.587809
-0.64684117 -0.035470393 1.6096811
-0.64635283 -0.031037282 1.6084658
-0.6413523 -0.026424918 1.5960219
-0.62554407 -0.021509117 1.5566827
-0.61519212 -0.016959269 1.5309216
-0.61075771 -0.012673353 1.5198865
-0.61245841 -0.033815496 1.5345803
-0.61315978 -0.029645484 1.5363377
-0.61159497 -0.025371829 1.5324169
-0.60778278 -0.021041851 1.5228652
-0.6031068 -0.025192622 1.5215932
-0.60158169 -0.020971112 1.5177455
