# .PCD v0.7 - Point Cloud Data file format
VERSION 0.7
FIELDS x y z
SIZE 4 4 4
TYPE F F F
COUNT 1 1 1
WIDTH 183
HEIGHT 1
VIEWPOINT 0 0 0 1 0 0 0
POINTS 183
DATA ascii
-0.019544065 0.035897125 0.82122982
-0.019744728 0.038538512 0.82966155
-0.019991083 0.041320544 0.84001327
nan nan nan
nan nan nan
nan nan nan
nan nan nan
nan nan nan
nan nan nan
-0.020560008 0.052131601 1.1222951
nan nan nan
nan nan nan
nan nan nan
nan nan nan
nan nan nan
nan nan nan
-0.017230185 0.048340749 1.1059065
-0.01759957 0.052471623 1.1296152
-0.017538596 0.05537365 1.1257015
-0.017189912 0.057295285 1.1033217
-0.016888637 0.05926064 1.0839845
-0.01646056 0.060652822 1.0565087
-0.015928563 0.061493278 1.0223628
nan nan nan
-0.013949149 0.047484789 1.0863245
-0.014441178 0.052240632 1.1246424
-0.014420306 0.055241592 1.123017
-0.014288331 0.05778433 1.1127391
-0.013995866 0.059587456 1.0899626
-0.013614312 0.0608675 1.0602481
-0.013189051 0.061780009 1.0271299
-0.012767189 0.062527709 0.9942764
-0.01075053 0.040690091 1.0642802
-0.010802832 0.043817788 1.0694579
-0.011013654 0.047659826 1.0903288
-0.011181685 0.051419433 1.1069635
-0.011223888 0.054657437 1.1111416
-0.011189505 0.057524607 1.1077377
-0.010960092 0.059317593 1.0850263
-0.010664507 0.060610071 1.055764
-0.010334143 0.061535131 1.0230587
-0.010029248 0.062439561 0.99287468
-0.0096685737 0.062816225 0.95716864
-0.008092925 0.04202972 1.0993192
-0.0081475805 0.045345448 1.1067435
-0.0080985138 0.048085995 1.1000785
-0.0081186295 0.051226538 1.1028109
-0.0080715669 0.053933181 1.096418
-0.0080273077 0.05662458 1.0904061
-0.0078683328 0.05843113 1.0688113
-0.0076821842 0.059907474 1.0435255
-0.0074831713 0.061140165 1.0164921
-0.0072820154 0.062206436 0.98916769
-0.0070365551 0.062728047 0.95582509
-0.0049143662 0.034823164 1.0631866
-0.0050479565 0.038761511 1.0920879
-0.005112113 0.042283904 1.1059676
-0.0051474757 0.045627117 1.1136181
-0.0051063206 0.048288643 1.1047145
-0.0050768196 0.051018499 1.0983322
-0.0049907733 0.053111639 1.0797167
-0.0049456619 0.055562675 1.0699573
-0.0048489128 0.057349499 1.0490263
-0.0047714999 0.059261803 1.0322785
-0.0046608387 0.0606497 1.0083379
-0.0045388932 0.061752897 0.98195583
-0.0044049639 0.062541418 0.95298123
-0.001894758 0.030204149 1.0063316
-0.0019737731 0.034335494 1.0482975
-0.0020354276 0.038369503 1.0810431
-0.0020589347 0.041808307 1.093528
-0.0020661061 0.044960044 1.0973369
-0.0020482533 0.047551692 1.087855
-0.0020264073 0.049992871 1.0762523
-0.0019938261 0.052090019 1.058948
-0.0019685959 0.0542951 1.0455478
-0.0019426551 0.056406129 1.0317703
-0.0019157624 0.058412656 1.0174873
-0.0018787179 0.060016617 0.99781245
-0.001831945 0.061187845 0.97297072
-0.0017830359 0.062148523 0.94699448
-0.001728488 0.062762119 0.91802335
0.00085528201 0.032702215 0.99843192
0.00088726525 0.036762558 1.0357683
0.00090117485 0.040220812 1.0520059
0.0009030198 0.043190986 1.0541596
0.00090013322 0.045931526 1.05079
0.00089887675 0.048741989 1.0493232
0.00088911789 0.051056184 1.037931
0.00087952823 0.053318217 1.0267363
0.0008657024 0.055248566 1.0105964
0.00085496821 0.057297681 0.99806559
0.00084101071 0.059051812 0.98177201
0.00082346133 0.060452979 0.96128535
0.00080402801 0.061597582 0.93859947
0.0035254736 0.032110419 0.98036379
0.0036065227 0.035596032 1.0029019
0.0036735747 0.03905632 1.0215477
0.0036882283 0.04202177 1.0256226
0.0036780462 0.044707656 1.0227911
0.0036623224 0.047306448 1.0184187
0.0036371688 0.049752295 1.0114239
0.0036192376 0.052264117 1.0064377
0.0035617549 0.054147333 0.99045289
0.0035103748 0.056040403 0.97616512
0.0034549283 0.057787169 0.96074653
0.0034013758 0.059482582 0.94585466
0.0033281606 0.060737569 0.92549497
0.0032449262 0.061690524 0.90234911
0.0061094221 0.031584542 0.96430826
0.0062328563 0.034917727 0.98379099
0.0063010692 0.038024426 0.99455768
0.0063624345 0.041145831 1.0042436
0.0063726534 0.043967422 1.0058565
0.0063321483 0.04642595 0.99946326
0.0062805386 0.048763234 0.99131715
0.0062286356 0.051053483 0.98312479
0.006157347 0.053131569 0.97187269
0.0060509611 0.054829977 0.95508081
0.0059499266 0.056487184 0.93913352
0.0058714668 0.058281101 0.92674947
0.0057714749 0.059784129 0.91096681
0.0083607715 0.030175738 0.921296
0.0085876845 0.033587065 0.94630015
0.0087477565 0.03685379 0.96393889
0.0088452399 0.039934587 0.9746809
0.0088728061 0.042737465 0.97771847
0.0088626062 0.045363676 0.97659451
0.0087745981 0.047561985 0.96689671
0.008735802 0.049988758 0.96262163
0.0086535532 0.052130338 0.95355839
0.0085306233 0.053964924 0.94001245
0.0083825942 0.055558931 0.92370075
0.0082660196 0.057281535 0.910855
0.0081287595 0.058784183 0.89573002
0.010538392 0.029215859 0.89198995
0.010782781 0.032393627 0.91267556
0.010938548 0.035397939 0.92585999
0.011119051 0.038560271 0.94113809
0.011207235 0.041464753 0.9486022
0.011219359 0.044111077 0.94962835
0.011197954 0.046623431 0.94781667
0.011138262 0.048957564 0.94276416
0.011038894 0.051080421 0.93435347
0.010916997 0.053047724 0.92403585
0.010769858 0.054829996 0.91158175
0.010623591 0.056548666 0.89920139
0.013011282 0.031730931 0.8940044
0.013183421 0.034632221 0.90583199
0.013384019 0.037678435 0.91961515
0.013429991 0.04033576 0.92277384
0.013483146 0.043033313 0.92642617
0.013456015 0.045479525 0.92456198
0.013449191 0.047987979 0.92409313
0.013359932 0.050184209 0.91796011
0.013214075 0.052123588 0.9079383
0.013061609 0.053980742 0.89746237
0.012888761 0.055692423 0.88558596
0.015016929 0.02844196 0.86836201
0.015254606 0.03130861 0.88210577
0.015422765 0.034096874 0.89182967
0.015594657 0.036947262 0.9017694
0.015686484 0.039649729 0.90707934
0.015703129 0.042179346 0.90804183
0.015679209 0.044598851 0.90665865
0.015634898 0.046949554 0.90409642
0.015509477 0.049029797 0.89684385
0.015370104 0.051023994 0.88878453
0.01521603 0.052922901 0.87987512
0.017358547 0.030754849 0.86650378
0.017514743 0.033426702 0.87430072
0.017670559 0.036140498 0.88207877
0.017654382 0.038521621 0.88127124
0.017702017 0.04104628 0.88364911
0.017674726 0.043399993 0.88228679
0.017732101 0.045965713 0.88515079
0.017604308 0.048041806 0.87877166
0.017455947 0.050024003 0.87136573
0.019424725 0.032612212 0.85299718
0.019621307 0.035302654 0.86162961
0.019659868 0.037737075 0.86332297
0.019664679 0.040111925 0.86353421
0.019639015 0.042422112 0.86240727
