# .PCD v0.7 - Point Cloud Data file format
VERSION 0.7
FIELDS x y z
SIZE 4 4 4
TYPE F F F
COUNT 1 1 1
WIDTH 80
HEIGHT 1
VIEWPOINT 0 0 0 1 0 0 0
POINTS 80
DATA ascii
0.084634125 -0.38583472 1.5996953
0.08494591 -0.38285765 1.6055886
0.085559539 -0.3811931 1.6171869
0.086339653 -0.38019812 1.631932
0.088585339 -0.38832727 1.5919483
0.089503527 -0.38794601 1.6084489
0.089803599 -0.38482556 1.6138414
0.090685427 -0.3841399 1.6296885
0.091541387 -0.38325912 1.6450708
0.092388034 -0.38225549 1.6602857
0.091764651 -0.38769549 1.5717074
0.092884786 -0.38806978 1.5908927
0.093870223 -0.38778245 1.6077708
0.094391666 -0.38550764 1.6167018
0.095607258 -0.38598636 1.637522
0.096472085 -0.38495135 1.6523345
0.09742979 -0.38420141 1.6687375
0.098018885 -0.38192537 1.6788274
0.098924264 -0.38081154 1.6943343
0.095949695 -0.38720885 1.5697346
0.097272642 -0.38818815 1.591378
0.098551586 -0.38887522 1.6123015
0.099306434 -0.3874031 1.6246508
0.10052548 -0.38765341 1.6445944
0.1014249 -0.38657621 1.6593089
0.10251699 -0.38614413 1.6771755
0.10339168 -0.38480499 1.6914854
0.10412527 -0.38286862 1.7034868
0.10440797 -0.3792288 1.7081118
0.10269982 -0.39226606 1.6080954
0.10356436 -0.39112586 1.6216327
0.10420885 -0.38908979 1.6317242
0.10539382 -0.38899329 1.6502787
0.10634287 -0.38793451 1.6651391
0.10763668 -0.38803723 1.685398
0.10832144 -0.38585937 1.6961201
0.10908593 -0.38390338 1.7080907
0.10926437 -0.37984443 1.7108847
0.10839494 -0.39253154 1.6274608
0.10899684 -0.39022809 1.636498
0.11032113 -0.39043167 1.656381
0.11131211 -0.38936049 1.6712599
0.11245802 -0.38874331 1.6884648
0.11309328 -0.38628763 1.6980026
0.11370825 -0.38371128 1.7072359
0.11394492 -0.37982324 1.7107893
0.11394985 -0.37515286 1.7108634
0.11348929 -0.39026016 1.6366324
0.11496715 -0.39080027 1.6579447
0.11616823 -0.39029372 1.6752656
0.11729264 -0.38943765 1.6914806
0.11768997 -0.38610747 1.6972107
0.11817013 -0.38301432 1.7041351
0.11820655 -0.37846249 1.7046603
0.11758016 -0.39342991 1.6311855
0.11771805 -0.38941747 1.6330985
0.11923929 -0.38991824 1.6542027
0.12067533 -0.39002794 1.6741248
0.12188977 -0.3893207 1.6909727
0.12229022 -0.38595217 1.6965281
0.12262726 -0.38235551 1.7012038
0.12250143 -0.37730756 1.6994582
0.12198938 -0.38877222 1.6303924
0.12313414 -0.38791218 1.6456922
0.12467044 -0.38818744 1.6662248
0.1257738 -0.38701802 1.6809713
0.12621902 -0.38376677 1.6869216
0.12645973 -0.3798686 1.6901388
0.12620942 -0.37449574 1.6867933
0.12629497 -0.38827783 1.6283191
0.12702334 -0.38603067 1.63771
0.12807727 -0.38470998 1.6512984
0.12877396 -0.38225436 1.6602807
nan nan nan
0.12732272 -0.36895245 1.64157
0.13107224 -0.38921782 1.6322612
0.13126208 -0.38530353 1.6346252
0.13142262 -0.38129136 1.6366246
nan nan nan
0.12692644 -0.35958657 1.5806329
