# .PCD v0.7 - Point Cloud Data file format
VERSION 0.7
FIELDS x y z
SIZE 4 4 4
TYPE F F F
COUNT 1 1 1
WIDTH 90
HEIGHT 1
VIEWPOINT 0 0 0 1 0 0 0
POINTS 90
DATA ascii
0.4046815 -0.15502165 1.4874532
0.40931603 -0.15267552 1.504488
0.41936481 -0.15220107 1.5414234
0.42991754 -0.15170206 1.5802112
0.43526855 -0.14920743 1.5998794
0.40879008 -0.15910961 1.4875759
0.41882351 -0.15883964 1.5240873
0.43250608 -0.15971722 1.5738778
0.44091636 -0.15842757 1.6044825
0.44362614 -0.1549788 1.6143434
0.44529885 -0.15112405 1.6204304
0.44286373 -0.1458828 1.611569
0.41228044 -0.16295363 1.4854689
0.42072105 -0.16213708 1.5158808
0.43885106 -0.16479234 1.5812043
0.4471432 -0.16349262 1.6110812
0.44999284 -0.16009295 1.6213487
0.44890368 -0.15527457 1.6174244
0.44836515 -0.15066275 1.6154841
0.44581887 -0.14540671 1.6063097
0.44419923 -0.140494 1.600474
0.41341704 -0.1658465 1.4750051
0.41942388 -0.16415676 1.4964366
0.43480995 -0.16592886 1.5513316
0.44935322 -0.16708678 1.6032196
0.45289409 -0.16397685 1.615853
0.45379186 -0.15986656 1.619056
0.45124191 -0.15455781 1.6099582
0.44962797 -0.14961037 1.6041999
0.44759402 -0.14455883 1.5969431
0.44697005 -0.13998863 1.5947169
0.42723277 -0.16559455 1.5095433
0.44601744 -0.1685583 1.5759152
0.45433825 -0.16730517 1.6053152
0.45596406 -0.16349043 1.6110597
0.4565618 -0.15928555 1.6131717
0.45374149 -0.15390965 1.6032066
0.45187116 -0.14890142 1.5965981
0.44997808 -0.14392212 1.5899094
0.44922611 -0.13933338 1.5872525
0.44707304 -0.13433821 1.579645
0.43454644 -0.16681466 1.5206656
0.45151275 -0.16899927 1.5800381
0.45824888 -0.16712753 1.6036108
0.45867965 -0.16288748 1.6051182
0.45878834 -0.1585279 1.6054986
0.45674297 -0.15344253 1.5983409
0.45524243 -0.14857422 1.5930898
0.4532387 -0.14357528 1.5860779
0.45155355 -0.13871261 1.5801809
0.4488821 -0.13358875 1.5708324
0.45272273 -0.16784313 1.5692289
0.45894217 -0.16579102 1.5907867
0.45901865 -0.16146003 1.5910518
0.45971823 -0.15734084 1.5934767
0.45835137 -0.15252073 1.5887389
0.45800421 -0.14805622 1.5875355
0.45567676 -0.14297695 1.5794681
0.45376918 -0.13806963 1.5728561
0.45099169 -0.13294211 1.5632287
0.45121574 -0.16571091 1.549294
0.45901391 -0.16425723 1.5760697
0.45940217 -0.16007495 1.5774029
0.45978621 -0.15588391 1.5787215
0.45904362 -0.15131427 1.5761718
0.45871726 -0.14689191 1.5750512
0.4567984 -0.14198071 1.5684626
0.45554072 -0.13730489 1.5641443
0.45330614 -0.13236746 1.5564716
0.44842041 -0.1631497 1.5253482
0.45833531 -0.16248602 1.5590748
0.45952946 -0.15862721 1.5631368
0.46042991 -0.1546475 1.5661998
0.45915034 -0.1499391 1.5618472
0.45795891 -0.14528251 1.5577943
0.45647556 -0.14055824 1.5527486
0.45569259 -0.13607074 1.5500853
0.45454466 -0.13149227 1.5461805
0.45816511 -0.16092609 1.544107
0.46209523 -0.1580402 1.5573522
0.46240142 -0.15387578 1.5583842
0.46058205 -0.149018 1.5522525
0.45871308 -0.14417824 1.5459538
0.4568733 -0.13938189 1.5397533
0.45621991 -0.13497047 1.5375513
0.46202102 -0.15656929 1.5428576
0.46496174 -0.15331233 1.5526778
0.4627091 -0.14833666 1.5451554
0.46074411 -0.14349182 1.5385936
0.45783582 -0.13839777 1.5288818
