# .PCD v0.7 - Point Cloud Data file format
VERSION 0.7
FIELDS x y z
SIZE 4 4 4
TYPE F F F
COUNT 1 1 1
WIDTH 973
HEIGHT 1
VIEWPOINT 0 0 0 1 0 0 0
POINTS 973
DATA ascii
-0.040430091 -0.00010010254 0.83440685
-0.040290825 0.0021781945 0.83153266
-0.040314984 0.0044588181 0.83203125
-0.040200546 0.0067190095 0.82966948
-0.040268026 0.009006951 0.83106214
-0.040233187 0.011273852 0.83034313
-0.040004335 0.01347148 0.82562006
-0.039944362 0.015709648 0.82438231
-0.039756268 0.017883401 0.82050031
-0.039904028 0.02020595 0.82354987
-0.039771538 0.022387456 0.8208155
-0.039813004 0.024661735 0.82167131
-0.039867699 0.026949646 0.8228001
-0.03993002 0.029249322 0.82408625
-0.039966736 0.031535845 0.824844
-0.039838739 0.033687245 0.82220238
-0.039829504 0.035931304 0.82201177
-0.039886609 0.038237918 0.82319033
-0.039852403 0.040458292 0.82248437
-0.039884824 0.042746209 0.82315356
-0.03986406 0.044977769 0.82272494
-0.039671015 0.047002874 0.81874084
-0.039409254 0.048920847 0.81333858
-0.039275158 0.050974913 0.81057107
-0.03918469 0.053072911 0.80870396
-0.039125454 0.055204742 0.80748141
-0.039075539 0.057343554 0.80645126
-0.039211534 0.059760064 0.80925798
-0.039044488 0.061712965 0.80581045
-0.039064337 0.063952945 0.80622011
-0.038848683 0.065796316 0.80176938
-0.038944203 0.068159908 0.80374074
-0.03879207 0.070086867 0.80060101
-0.038826756 0.072344713 0.80131686
-0.038010098 -9.9750439e-05 0.83147192
-0.037958391 0.0021750724 0.83034086
-0.038086601 0.0044647893 0.83314544
-0.03796101 0.0067249103 0.83039814
-0.037942708 0.0089954156 0.82999778
-0.037815727 0.011231449 0.82722008
-0.037677173 0.013448133 0.82418919
-0.037657276 0.015697673 0.82375395
-0.037485674 0.017872499 0.82000011
-0.037600502 0.020180486 0.82251197
-0.037524685 0.022388492 0.82085347
-0.037618589 0.024698842 0.82290763
-0.037636962 0.026966332 0.82330954
-0.037694093 0.029266112 0.82455927
-0.037663676 0.031499524 0.82389396
-0.037622739 0.03371986 0.8229984
-0.037618671 0.035970546 0.82290947
-0.037653856 0.038260624 0.82367915
-0.037564155 0.04042054 0.8217169
-0.037580732 0.042690434 0.82207954
-0.037620444 0.044989977 0.82294822
-0.037510458 0.047106292 0.82054228
-0.037148502 0.048877895 0.81262445
-0.037016541 0.050922513 0.80973786
-0.03694443 0.053037241 0.80816042
-0.036947247 0.055255376 0.80822206
-0.036871478 0.057351612 0.80656457
-0.036919069 0.059638046 0.80760562
-0.036809795 0.061667383 0.80521524
-0.036804724 0.06386444 0.80510432
-0.036594238 0.065692142 0.80049998
-0.036689553 0.068061896 0.80258495
-0.036541514 0.069977053 0.79934663
-0.036619481 0.072320811 0.80105215
-0.035689332 -9.9630459e-05 0.83047181
-0.035674881 0.0021745348 0.83013558
-0.035845291 0.0044699097 0.8341009
-0.035773788 0.0067414222 0.83243704
-0.035681769 0.0089986455 0.8302958
-0.035537094 0.011227501 0.82692927
-0.035404641 0.013442554 0.82384723
-0.035306938 0.015656125 0.82157367
-0.035161942 0.017833257 0.81819969
-0.035249617 0.020124741 0.8202399
-0.035277322 0.022389339 0.82088453
-0.035318028 0.024666552 0.82183176
-0.035328366 0.026925808 0.82207233
-0.035371523 0.029213486 0.82307661
-0.035396129 0.031490162 0.82364911
-0.035328243 0.033681799 0.82206947
-0.035378803 0.035985254 0.82324594
-0.035354327 0.038214047 0.82267642
-0.03529143 0.040395744 0.82121283
-0.035229292 0.042570341 0.81976694
-0.035236672 0.044825442 0.8199386
-0.035173822 0.046987679 0.8184762
-0.034851428 0.048778635 0.81097424
-0.034743641 0.050842535 0.80846608
-0.034685545 0.052968584 0.80711424
-0.034727387 0.0552462 0.80808783
-0.034644514 0.057322804 0.80615944
-0.034662653 0.059562422 0.80658156
-0.034656897 0.061761759 0.80644757
-0.034642827 0.063945018 0.80612016
-0.034443289 0.065772325 0.80147702
-0.034433987 0.067949586 0.80126059
-0.034307491 0.06988693 0.79831713
-0.03434065 0.07214354 0.79908866
-0.033392623 -9.956587e-05 0.82993346
-0.033410039 0.0021751393 0.83036631
-0.033563621 0.0044703516 0.83418339
-0.033463545 0.0067354222 0.83169615
-0.033398379 0.0089962678 0.83007646
-0.033299658 0.011236918 0.82762289
-0.033240002 0.013479967 0.82614017
-0.033089448 0.01567184 0.82239836
-0.032902863 0.017823698 0.81776106
-0.032940105 0.020086631 0.81868666
-0.032950431 0.022336392 0.81894326
-0.033067551 0.024667224 0.82185417
-0.033033602 0.026891025 0.82101035
-0.033071235 0.029173346 0.82194567
-0.033037387 0.031392876 0.82110447
-0.033027213 0.033631902 0.82085162
-0.033088919 0.035947632 0.82238525
-0.033100713 0.038214136 0.82267833
-0.033055354 0.040412378 0.82155097
-0.032924414 0.042493992 0.81829667
-0.032854576 0.044640787 0.81656092
-0.032882504 0.046917573 0.81725502
-0.032634381 0.048785493 0.8110882
-0.032573149 0.050911728 0.80956638
-0.03247254 0.05296541 0.8070659
-0.032549106 0.055306427 0.80896878
-0.032453615 0.057353813 0.8065955
-0.032502159 0.059652548 0.80780202
-0.0325494 0.061955411 0.80897617
-0.032599706 0.064270742 0.81022644
-0.032378189 0.066038527 0.80472088
-0.03222882 0.067928202 0.80100846
-0.032098286 0.069838531 0.79776424
-0.032136116 0.072108857 0.7987045
-0.031160135 -9.9697318e-05 0.83102912
-0.031142868 0.0021756692 0.83056861
-0.031214187 0.004461173 0.83247066
-0.031151989 0.0067282608 0.83081186
-0.031110466 0.008992237 0.82970446
-0.031106481 0.011263737 0.82959819
-0.030974172 0.013478814 0.82606953
-0.030831255 0.015669165 0.822258
-0.030654019 0.017818686 0.81753117
-0.030732924 0.020109912 0.81963557
-0.030739818 0.022360288 0.81981939
-0.030847726 0.024692528 0.82269728
-0.030774118 0.02688198 0.8207342
-0.030801736 0.029156489 0.82147074
-0.030752467 0.03135664 0.82015675
-0.030756181 0.03360749 0.82025582
-0.030770117 0.035870798 0.82062751
-0.030810421 0.038168799 0.82170236
-0.030793538 0.040397674 0.82125211
-0.030693319 0.042508669 0.81857932
-0.030589214 0.044599347 0.81580287
-0.030580865 0.046821423 0.81558019
-0.030371811 0.048720326 0.81000483
-0.03029725 0.050814249 0.8080163
-0.030224957 0.052901253 0.80608827
-0.030327775 0.055296965 0.80883038
-0.030286992 0.057435386 0.80774271
-0.030356973 0.059785996 0.80960912
-0.030395798 0.062083185 0.81064457
-0.030412532 0.06433931 0.81109083
-0.030170176 0.066030845 0.8046273
-0.030006047 0.067863889 0.80025005
-0.029908279 0.069827877 0.79764259
-0.02988085 0.071946941 0.79691106
-0.028914042 -9.9802513e-05 0.83190602
-0.028843913 0.0021738869 0.82988828
-0.028851958 0.0044485745 0.83011973
-0.028793545 0.0067090453 0.82843912
-0.028803144 0.0089815157 0.82871526
-0.02876348 0.011236255 0.82757407
-0.028616447 0.013434337 0.82334369
-0.028569039 0.015663862 0.8219797
-0.028447866 0.017839659 0.81849337
-0.028530302 0.020140082 0.82086515
-0.028444232 0.022321269 0.81838876
-0.028602319 0.024699729 0.82293719
-0.028494304 0.026852345 0.8198294
-0.028585311 0.02919117 0.82244784
-0.028472643 0.0313203 0.81920624
-0.028527934 0.033629663 0.82079703
-0.02848703 0.035826761 0.81962013
-0.028562546 0.038173005 0.82179284
-0.028515507 0.040357701 0.82043946
-0.028459696 0.042521879 0.81883371
-0.028344166 0.044583317 0.81550968
-0.028403573 0.046915505 0.81721896
-0.028186193 0.048778053 0.81096452
-0.028098023 0.050840124 0.80842775
-0.028015288 0.052898563 0.80604732
-0.028092381 0.055258341 0.80826539
-0.028067738 0.057422135 0.80755639
-0.028120739 0.059747018 0.80908132
-0.028047953 0.061803084 0.80698717
-0.028023537 0.063958064 0.80628467
-0.027801562 0.065642752 0.79989809
-0.027739117 0.067681678 0.79810143
-0.027630698 0.069594964 0.79498202
-0.027653299 0.071831495 0.7956323
-0.026664745 -9.9913726e-05 0.83283299
-0.026546629 0.0021719369 0.82914382
-0.026510058 0.0044372235 0.82800156
-0.026465084 0.0066941259 0.82659686
-0.026504155 0.0089717824 0.8278172
-0.026441602 0.01121303 0.82586342
-0.026277073 0.013391602 0.82072461
-0.026227653 0.015610531 0.81918108
-0.026172776 0.017817289 0.81746703
-0.026284751 0.020142516 0.8209644
-0.026262565 0.022372618 0.82027149
-0.026338683 0.024691079 0.82264894
-0.026233764 0.02683736 0.81937194
-0.026347727 0.029208332 0.82293141
-0.026274774 0.031375609 0.82065284
-0.026334494 0.033700179 0.82251811
-0.026216038 0.035791714 0.81881827
-0.026278332 0.03812521 0.82076395
-0.026198348 0.040250778 0.8182658
-0.026226809 0.04253855 0.81915474
-0.026110968 0.044584788 0.81553656
-0.026118373 0.0468322 0.81576788
-0.025906887 0.048669659 0.80916244
-0.025882035 0.050837513 0.80838621
-0.025825022 0.052935194 0.80660546
-0.025850968 0.055200264 0.8074159
-0.025843794 0.057396211 0.80719179
-0.025854448 0.059632059 0.80752456
-0.025744654 0.061581612 0.80409533
-0.025679786 0.063623682 0.80206925
-0.025551235 0.06549143 0.79805416
-0.025581166 0.067756943 0.798989
-0.025463331 0.06962356 0.79530865
-0.02546162 0.071797445 0.79525518
-0.024373857 -9.9875309e-05 0.8325128
-0.024269016 0.0021713816 0.82893187
-0.02424922 0.0044385856 0.82825571
-0.024205934 0.0066955867 0.82677722
-0.02423398 0.008970893 0.82773513
-0.024137907 0.011193888 0.82445365
-0.024030203 0.013392422 0.82077491
-0.02399434 0.015617561 0.81954998
-0.024009161 0.017873721 0.8200562
-0.024075808 0.020176087 0.82233262
-0.023984447 0.022343723 0.81921208
-0.023961829 0.024564737 0.81843954
-0.023897858 0.026735255 0.81625456
-0.024055619 0.029162606 0.82164305
-0.024030495 0.031380657 0.82078493
-0.024033036 0.033632725 0.82087171
-0.023910172 0.035698034 0.81667519
-0.023973003 0.038034968 0.81882119
-0.023925908 0.040198974 0.81721264
-0.023963274 0.042503975 0.81848896
-0.023862122 0.044557311 0.81503397
-0.023867834 0.046801265 0.81522906
-0.023726653 0.048744515 0.81040692
-0.023717508 0.050944943 0.81009454
-0.023676241 0.053071667 0.808685
-0.023648979 0.055223368 0.80775386
-0.023612764 0.057348222 0.80651689
-0.023604866 0.059537731 0.80624717
-0.023514282 0.061509456 0.80315316
-0.023493143 0.063652389 0.80243111
-0.023400642 0.065591343 0.7992717
-0.023481879 0.068016224 0.80204642
-0.023356665 0.069839001 0.79776961
-0.0233685 0.07206095 0.79817384
-0.022051891 -9.9688477e-05 0.83095545
-0.022000235 0.0021715835 0.82900894
-0.022003455 0.004443272 0.82913029
-0.021975474 0.0067061041 0.82807595
-0.021938741 0.0089595858 0.82669181
-0.021860452 0.011184222 0.82374167
-0.021786343 0.013395266 0.82094914
-0.02175707 0.015623203 0.81984603
-0.021811515 0.017913856 0.82189763
-0.021863706 0.020213667 0.82386434
-0.021822982 0.022428758 0.82232976
-0.021719219 0.024564145 0.81841981
-0.021653408 0.026724949 0.8159399
-0.021723054 0.02905333 0.8185643
-0.021769673 0.031362921 0.82032096
-0.021800891 0.033658355 0.82149732
-0.021721032 0.035777278 0.81848806
-0.021807045 0.038170051 0.82172924
-0.021792281 0.040393777 0.82117289
-0.021802776 0.042663887 0.82156831
-0.021647012 0.044593658 0.81569886
-0.021595575 0.046716966 0.81376064
-0.021496588 0.04872188 0.81003064
-0.021509532 0.050971601 0.81051838
-0.021468699 0.053091008 0.80897969
-0.021430871 0.055209726 0.8075543
-0.021389509 0.057311162 0.8059957
-0.021398421 0.05954396 0.80633152
-0.021365577 0.061658092 0.80509394
-0.021330133 0.063757665 0.80375832
-0.021255756 0.065729536 0.80095565
-0.021287229 0.068024293 0.80214161
-0.021209085 0.069963962 0.79919702
-0.021227667 0.072216541 0.79989719
-0.019721856 -9.9417957e-05 0.82870054
-0.019675069 0.0021656256 0.82673448
-0.01969452 0.0044348133 0.82755184
-0.019653354 0.0066878516 0.82582211
-0.019605042 0.0089281593 0.8237921
-0.019575635 0.011168129 0.82255638
-0.019551994 0.013405282 0.82156301
-0.019575758 0.015674951 0.82256156
-0.019579353 0.01793162 0.8227126
-0.019615687 0.020222869 0.82423937
-0.019549914 0.02240546 0.82147557
-0.019486358 0.024575707 0.81880504
-0.019433998 0.026746729 0.81660485
-0.019482268 0.029055774 0.81863314
-0.019529682 0.031374559 0.82062542
-0.019554665 0.033665646 0.82167524
-0.019759588 0.043116592 0.83028597
-0.019568428 0.044951998 0.82225353
-0.019561321 0.047187388 0.82195491
-0.01950814 0.049304694 0.81972027
-0.019453928 0.051407032 0.81744236
-0.019345047 0.053346135 0.81286722
-0.01925784 0.055322427 0.80920279
-0.019204468 0.057379741 0.80696017
-0.019208608 0.059603229 0.80713415
-0.01920096 0.061789729 0.80681276
-0.019184751 0.063945927 0.80613166
-0.019094804 0.065844141 0.80235219
-0.019089913 0.068024717 0.80214661
-0.019035745 0.070022918 0.79987055
-0.019064587 0.072323546 0.80108243
-0.017415533 -9.9212142e-05 0.82698494
-0.017389698 0.0021630682 0.82575816
-0.017423639 0.0044338377 0.82736981
-0.017372647 0.0066807768 0.82494849
-0.017356114 0.0089321826 0.82416338
-0.017337617 0.011178022 0.82328504
-0.017309459 0.013411563 0.82194793
-0.017296357 0.015651401 0.82132578
-0.01726941 0.017873505 0.82004625
-0.017315662 0.020173874 0.82224244
-0.017309979 0.022419017 0.82197261
-0.017312782 0.024674775 0.82210577
-0.01728023 0.026876274 0.82056004
-0.017314237 0.02918148 0.82217485
-0.017406732 0.03160172 0.82656699
-0.017654456 0.034348037 0.83833033
nan nan nan
nan nan nan
-0.017819079 0.053212229 0.84614748
-0.017324092 0.053987674 0.82264274
-0.017125325 0.055595994 0.81320429
-0.017026624 0.057490464 0.80851734
-0.017004386 0.059627395 0.80746138
-0.017010517 0.061861701 0.80775255
-0.01699548 0.064017862 0.80703849
-0.016922604 0.065944731 0.80357796
-0.016858909 0.067889608 0.80055338
-0.016821193 0.069925912 0.79876238
-0.016842199 0.072204143 0.79975986
-0.015146552 -9.9189296e-05 0.82679451
-0.015112903 0.0021609715 0.82495773
-0.015118582 0.0044225729 0.82526773
-0.015064363 0.0066593941 0.82230812
-0.015091522 0.0089281434 0.82379061
-0.015110924 0.011199266 0.82484972
-0.015098665 0.013447992 0.82418054
-0.015061079 0.015666705 0.82212883
-0.015011782 0.017860245 0.81943792
-0.015042903 0.020146744 0.82113671
-0.015059046 0.022420252 0.82201791
-0.015133196 0.024793621 0.82606542
-0.015189984 0.027158128 0.82916528
-0.015552621 0.030132178 0.84896034
-0.015888289 0.033158403 0.86728317
nan nan nan
nan nan nan
nan nan nan
-0.015126075 0.056448694 0.82567674
-0.014887436 0.057784345 0.81265032
-0.014799318 0.059655376 0.80784029
-0.014770855 0.061749432 0.80628663
-0.014776252 0.063981593 0.8065812
-0.01471797 0.065930113 0.8033998
-0.014690704 0.068004772 0.80191141
-0.014657084 0.070040926 0.80007625
-0.014662629 0.07226003 0.80037892
-0.012885672 -9.9220808e-05 0.82705718
-0.012867079 0.0021633448 0.82586378
-0.012853466 0.0044210847 0.82499003
-0.012812203 0.0066596651 0.82234162
-0.012849846 0.0089386245 0.8247577
-0.012887989 0.011231257 0.8272059
-0.0128785 0.013487418 0.82659686
-0.012820195 0.015680535 0.82285458
-0.012763602 0.017855544 0.81922221
-0.012779721 0.020125154 0.82025677
-0.012829028 0.022458535 0.82342154
-0.013039656 0.025120027 0.83694053
-0.013356656 0.028079212 0.85728693
nan nan nan
nan nan nan
nan nan nan
-0.014410452 0.0607001 0.92492402
-0.013422801 0.058900021 0.86153239
-0.012818485 0.058502123 0.82274479
-0.012624091 0.059834633 0.81026775
-0.012563067 0.061754368 0.80635107
-0.012542548 0.063858859 0.80503398
-0.012502623 0.065853931 0.80247146
-0.012471662 0.067883745 0.80048424
-0.012452197 0.069967277 0.79923493
-0.012452836 0.072160453 0.79927593
-0.010619386 -9.9215264e-05 0.82701093
-0.010613011 0.0021650491 0.82651442
-0.010600394 0.0044239881 0.82553184
-0.010581012 0.0066732769 0.82402241
-0.010589294 0.0089376457 0.82466745
-0.010619609 0.011228845 0.82702821
-0.010613282 0.013486417 0.82653552
-0.01058512 0.015708886 0.82434237
-0.010545163 0.01789932 0.82123065
-0.010564116 0.02018526 0.82270658
-0.010674619 0.022673754 0.8313123
-0.011186084 0.026146611 0.87114388
nan nan nan
nan nan nan
nan nan nan
-0.012248659 0.06260135 0.9538945
-0.011651277 0.062033918 0.90737194
-0.010923401 0.060488973 0.85068685
-0.010530778 0.060561467 0.82011038
-0.010375968 0.061884798 0.80805415
-0.010325569 0.063787088 0.80412918
-0.010287489 0.065746605 0.80116361
-0.010284483 0.067921504 0.80092949
-0.010261326 0.069957748 0.79912609
-0.010267323 0.072189085 0.79959309
-0.0083445357 -9.9104982e-05 0.82609171
-0.0083435886 0.0021636963 0.82599795
-0.0083469693 0.0044282791 0.82633257
-0.0083306693 0.0066789174 0.82471889
-0.0083321976 0.0089398436 0.82487023
-0.0083531411 0.011227695 0.82694358
-0.0083607156 0.013505311 0.8276934
-0.0083614048 0.015774045 0.82776165
-0.0083508864 0.018018972 0.82672042
-0.0084120892 0.020432398 0.83277935
-0.0087228389 0.023552831 0.86354291
nan nan nan
nan nan nan
nan nan nan
-0.0093432954 0.063236818 0.92496681
-0.008932516 0.062879108 0.88430053
-0.0084772445 0.06197333 0.83922952
-0.0082129315 0.062268406 0.81306309
-0.0081244372 0.063800819 0.80430233
-0.0080873491 0.06570287 0.80063069
-0.0080693197 0.067744799 0.79884583
-0.0080482019 0.069750197 0.79675525
-0.0080440734 0.071895972 0.79634649
-0.006067974 -9.8884731e-05 0.82425582
-0.006071588 0.0021604188 0.82474679
-0.0060946317 0.0044365553 0.82787693
-0.0060814628 0.0066900062 0.82608813
-0.0060746688 0.0089430418 0.82516527
-0.0060766242 0.011207157 0.82543087
-0.0060892776 0.013496438 0.82714963
-0.0061089983 0.015813431 0.82982844
-0.006156588 0.018227613 0.83629292
-0.0064372527 0.021454001 0.8744176
nan nan nan
nan nan nan
-0.0078473166 0.03491389 1.0659566
-0.0080094757 0.038615845 1.0879837
-0.0068169925 0.063307479 0.92600036
-0.0065726279 0.063483939 0.89280653
-0.0063162558 0.063358098 0.85798174
-0.0060329302 0.062761046 0.81949562
-0.005933716 0.063936964 0.80601865
-0.0058898977 0.065656565 0.80006647
-0.0058794674 0.067728169 0.79864967
-0.0058612018 0.069698833 0.79616851
-0.0058577345 0.071837381 0.79569751
-0.0038075249 -9.882162e-05 0.82372975
-0.0038001353 0.002153567 0.82213104
-0.0038189383 0.0044275634 0.82619894
-0.0038086595 0.0066728946 0.82397521
-0.0038106984 0.0089349234 0.82441628
-0.0038124139 0.01119842 0.82478744
-0.0038320699 0.013527281 0.82903987
-0.0038603328 0.015914921 0.83515429
-0.0039110482 0.018441938 0.84612626
-0.0041145505 0.021840056 0.89015239
nan nan nan
-0.0047676056 0.030957639 1.0314361
-0.0042688055 0.063138202 0.92352438
-0.0041344254 0.063600957 0.89445227
-0.0040014409 0.063926727 0.86568207
-0.0038338597 0.063521646 0.82942706
-0.0037410844 0.064201683 0.8093558
-0.0037008978 0.065705419 0.80066174
-0.0036853836 0.067614168 0.79730535
-0.0036769735 0.069639079 0.79548591
-0.0036691674 0.071665809 0.79379714
-0.0015494896 -9.8728655e-05 0.82295483
-0.0015480353 0.0021537016 0.82218248
-0.0015569569 0.0044314321 0.82692087
-0.0015516481 0.0066739158 0.82410127
-0.00155245 0.0089361258 0.82452714
-0.001553581 0.011203042 0.82512784
-0.0015631255 0.013546162 0.8301971
-0.0015763136 0.015953932 0.83720148
-0.0015866008 0.018366499 0.84266514
-0.0016660435 0.021710165 0.88485825
-0.0018194638 0.026356636 0.96634179
-0.0016775435 0.063353062 0.890966
-0.0016334153 0.064063117 0.86752898
-0.0015793726 0.064241469 0.83882612
-0.0015357441 0.064701319 0.8156544
-0.0015087079 0.065757401 0.80129516
-0.0015029419 0.067692816 0.79823279
-0.0014975754 0.069630027 0.79538256
-0.0014964818 0.071756504 0.79480171
0.00070570421 -9.8832337e-05 0.82381904
0.00070406444 0.0021529745 0.82190484
0.00070788292 0.0044284393 0.82636243
0.00070522138 0.0066670654 0.82325542
0.00070668996 0.0089409221 0.82496977
0.00070734759 0.01121132 0.82573748
0.00071233336 0.013568364 0.83155775
0.00071917288 0.015998533 0.83954197
0.00072328513 0.018403059 0.84434253
0.00075714296 0.021685848 0.8838672
0.00080895785 0.025756938 0.94435441
0.00083542586 0.029271336 0.97525245
0.00078032661 0.062277243 0.91093111
0.00075765152 0.062890507 0.88446087
0.0007399522 0.063787684 0.86379915
0.00072052318 0.064417012 0.84111828
0.00070357666 0.065151952 0.82133538
0.00068874966 0.065981567 0.80402678
0.00068479026 0.067792192 0.79940468
0.00068032334 0.069525644 0.79419017
0.00068011461 0.071679294 0.7939465
0.0029584423 -9.8696131e-05 0.82268369
0.0029537757 0.0021516152 0.82138598
0.0029680599 0.0044230577 0.82535815
0.0029604523 0.0066669625 0.82324266
0.0029676259 0.0089438241 0.82523745
0.0029724471 0.011222733 0.82657814
0.0029906053 0.013569504 0.83162761
0.0030144621 0.015974136 0.83826166
0.0030285087 0.018355658 0.84216774
0.0031479592 0.021477725 0.87538457
0.0033394999 0.025328556 0.92864817
0.0034405724 0.028716136 0.95675445
0.0031531511 0.062347788 0.87682831
0.0030888328 0.063429058 0.85894269
0.003004648 0.06398923 0.83553255
0.0029585131 0.06526047 0.82270336
0.0028977455 0.066127501 0.80580509
0.0028822063 0.067968525 0.80148399
0.0028523093 0.069436356 0.79317021
0.0028513074 0.071584061 0.79289162
0.0052051549 -9.8563614e-05 0.8215791
0.0051933844 0.0021472545 0.81972128
0.005213866 0.0044101742 0.82295412
0.0052042538 0.0066523384 0.82143688
0.0052253595 0.0089387381 0.82476825
0.0052387151 0.011226781 0.82687622
0.0052721193 0.013578008 0.83214879
0.0052993237 0.015939474 0.83644271
0.0053140321 0.018281477 0.83876425
0.0054603308 0.021145798 0.86185598
0.0057746959 0.02486017 0.91147524
0.0059901457 0.028377796 0.94548172
0.0056629525 0.061108626 0.89383769
0.0055240155 0.06199792 0.87190795
0.0054229442 0.063208424 0.85595489
0.005279704 0.063821763 0.83334589
0.005218544 0.065338932 0.8236925
0.0051421928 0.06660644 0.81164122
0.0050974814 0.068231419 0.80458397
0.0050374083 0.069605477 0.79510206
0.0050191707 0.071523733 0.79222345
0.007426721 -9.817868e-05 0.81837046
0.0074162022 0.0021406799 0.81721139
0.0074399086 0.0043933983 0.81982362
0.0074298377 0.0066302866 0.8187139
0.0074473969 0.0088940924 0.82064879
0.0074575529 0.011157423 0.82176793
0.0074901609 0.013467254 0.82536107
0.0075304271 0.015812851 0.8297981
0.0075898436 0.018228756 0.83634537
0.0077679986 0.021001551 0.85597676
0.0080891643 0.024311719 0.89136684
0.0082287015 0.02721508 0.90674281
0.0080303028 0.060496271 0.88488078
0.0078723524 0.061682768 0.86747581
0.0077300086 0.062900901 0.85179055
0.0075279861 0.063529454 0.82952911
0.0074368501 0.065005302 0.81948662
0.0073591685 0.066547796 0.81092668
0.0073026638 0.068241276 0.80470026
0.0072195055 0.069643535 0.79553682
0.0071743089 0.071373239 0.79055649
0.0096430639 -9.7919212e-05 0.81620771
0.009640445 0.0021374701 0.81598604
0.0096644722 0.0043837312 0.81801975
0.0096419398 0.0066092201 0.81611258
0.0096488036 0.0088512255 0.81669348
0.0096530458 0.011093401 0.81705254
0.0096656093 0.013349037 0.81811595
0.0097172242 0.015673487 0.82248473
0.0097852945 0.018052232 0.82824636
0.01003401 0.020837689 0.84929812
0.010283282 0.023739776 0.87039703
0.010509754 0.026699534 0.889566
0.010449271 0.058043685 0.88444662
0.010298717 0.059595384 0.87170345
0.010117596 0.060893293 0.85637301
0.0099405842 0.062132899 0.84139037
0.0097473096 0.063184984 0.82503122
0.0096430667 0.064745225 0.81620795
0.009562619 0.06642241 0.80939871
0.0094799101 0.068046041 0.80239803
0.0093902471 0.069579802 0.7948088
0.009326648 0.071271144 0.78942561
0.011851965 -9.7696087e-05 0.8143478
0.011832954 0.0021297571 0.81304157
0.011870166 0.0043707551 0.81559837
0.011842195 0.0065894914 0.81367648
0.011853515 0.0088269571 0.81445432
0.011847926 0.01105291 0.81407028
0.01185038 0.013285776 0.81423891
0.011892218 0.015571132 0.81711358
0.01197803 0.017938096 0.82300973
0.012232349 0.020621432 0.84048396
0.012448142 0.023328312 0.8553111
0.012678506 0.026146475 0.87113935
0.01275952 0.028715251 0.87670583
0.012735129 0.057425696 0.87502998
0.012548765 0.058947366 0.86222488
0.012288626 0.060038436 0.84435076
0.012077913 0.061282367 0.82987267
0.011902912 0.062634885 0.81784832
0.011838892 0.064526416 0.8134495
0.011732129 0.066152841 0.8061139
0.011639087 0.067819014 0.79972094
0.011525731 0.06932798 0.79193223
0.011461797 0.071100846 0.78753936
0.01404473 -9.7431701e-05 0.81214404
0.014019088 0.0021235221 0.81066132
0.014085502 0.0043648784 0.81450176
0.014032816 0.006571502 0.81145513
0.014051594 0.0088062203 0.81254095
0.014051637 0.01103218 0.81254345
0.014058965 0.013265027 0.81296724
0.014075122 0.015509922 0.81390148
0.01412286 0.017799741 0.81666195
0.014334656 0.020337444 0.82890922
0.014562117 0.022966955 0.84206223
0.014827339 0.025734067 0.85739887
0.015066501 0.054789517 0.87122852
0.014892925 0.056517512 0.86119139
0.014671518 0.05800141 0.84838837
0.01437777 0.059117723 0.8314023
0.014213624 0.060694396 0.8219105
0.014059658 0.062264137 0.8130073
0.014051471 0.064453781 0.81253386
0.013940691 0.066153996 0.80612797
0.013822012 0.067780375 0.79926527
0.013679363 0.069247812 0.79101652
0.013593029 0.070964053 0.78602421
0.016243611 -9.7276257e-05 0.81084836
0.016180404 0.002115747 0.80769318
0.016266519 0.0043514287 0.81199193
0.01620236 0.0065499125 0.80878925
0.016267389 0.0088007413 0.81203538
0.016273012 0.011029092 0.812316
0.016298546 0.013275199 0.81359065
0.01627242 0.015479147 0.8122865
0.016268734 0.017700365 0.8121025
0.01642219 0.02011303 0.81976265
0.016624499 0.022634186 0.82986158
0.016926013 0.025359299 0.84491253
0.017082257 0.027929364 0.85271192
0.017235905 0.051750403 0.86038166
0.017101208 0.053684544 0.8536579
0.016939908 0.055494696 0.84560615
0.016780214 0.057266206 0.8376345
0.016528951 0.058669027 0.82509202
0.016425455 0.060547825 0.81992567
0.016269483 0.0621977 0.81213981
0.016262775 0.064395964 0.81180501
0.016074589 0.065848976 0.80241108
0.015948368 0.067512833 0.79611045
0.015814569 0.06910906 0.78943151
0.015717978 0.070836365 0.78460985
0.018398631 -9.692715e-05 0.80793834
0.018322289 0.0021076074 0.80458587
0.018430727 0.0043372582 0.80934769
0.018380705 0.0065366463 0.80715114
0.018471373 0.0087909568 0.81113261
0.018454365 0.011002884 0.81038576
0.018472619 0.013235985 0.81118739
0.018437281 0.01542863 0.80963558
0.018434023 0.017643478 0.80949247
0.018565452 0.020002654 0.81526393
0.018730199 0.022433359 0.82249844
0.01896078 0.024990467 0.8326239
0.019052969 0.027404008 0.83667225
0.019254265 0.030009778 0.84551173
0.019675767 0.044868451 0.86402112
0.019579917 0.047005296 0.85981208
0.019456802 0.04905035 0.85440576
0.019263089 0.050879311 0.84589922
0.019165097 0.052926004 0.84159613
0.018976118 0.054686915 0.83329749
0.018828217 0.056525674 0.82680273
0.018649213 0.05823173 0.81894213
0.018617151 0.060371228 0.81753421
0.018502064 0.062223777 0.81248033
0.018441489 0.064238526 0.80982029
0.01818976 0.065549865 0.7987662
0.018036259 0.067166418 0.79202551
0.017925788 0.068911463 0.78717434
0.01783199 0.070696034 0.78305548
0.020585285 -9.680177e-05 0.80689323
0.020495092 0.0021043909 0.8033579
0.020598266 0.0043268315 0.80740207
0.020557424 0.006525714 0.80580115
0.020681478 0.0087858755 0.81066376
0.020661904 0.01099624 0.80989647
0.020657791 0.013212292 0.8097353
0.020619893 0.015402222 0.80824983
0.020583021 0.01758489 0.80680448
0.020684531 0.019892724 0.81078345
0.020728311 0.022160642 0.81249952
0.020919612 0.024611512 0.81999803
0.021013966 0.026979005 0.82369649
0.02124594 0.029558219 0.8327893
0.021335509 0.031973846 0.83630019
0.021520268 0.034561582 0.84354234
0.02153909 0.036904685 0.84428006
0.021614196 0.039354306 0.84722406
0.021556221 0.041563459 0.84495157
0.021590488 0.043947924 0.84629476
0.021458054 0.045982521 0.84110367
0.021439394 0.048244707 0.84037226
0.021228138 0.050048806 0.83209157
0.021144094 0.05212111 0.82879716
0.020957377 0.053911261 0.82147837
0.020912152 0.05604047 0.81970561
0.020809462 0.057999805 0.81568044
0.020829095 0.060291164 0.81645
0.020718811 0.062196728 0.81212711
0.020587649 0.06401369 0.80698591
0.020264547 0.065185085 0.79432112
0.020103723 0.066826493 0.78801715
0.02003474 0.068748526 0.78531319
0.019985847 0.070726842 0.78339672
0.022775801 -9.6717115e-05 0.80618757
0.022686897 0.0021035597 0.80304062
0.022755343 0.0043164426 0.80546343
0.022739677 0.0065184878 0.80490887
0.022840133 0.008762043 0.80846471
0.022844113 0.010978715 0.80860561
0.022832438 0.013187115 0.80819231
0.02283092 0.015400103 0.80813861
0.022800155 0.017590232 0.80704957
0.022853922 0.019847808 0.80895275
0.022843216 0.022053568 0.80857378
0.022972699 0.024406189 0.81315708
0.023028599 0.026698612 0.81513578
0.023165314 0.029103402 0.81997502
0.023219632 0.0314232 0.82189769
0.023415199 0.033958387 0.82882011
0.023479585 0.036328528 0.83109915
0.023509223 0.038654022 0.83214825
0.023428347 0.040792841 0.8292855
0.023427324 0.043062758 0.82924932
0.023378417 0.045239814 0.82751817
0.023402845 0.047556408 0.82838285
0.02326683 0.04953615 0.82356834
0.023183137 0.051605977 0.82060587
0.023022274 0.053480316 0.81491184
0.023026783 0.055723649 0.81507146
0.02296046 0.057789575 0.81272388
0.02296534 0.060028762 0.81289661
0.022825319 0.061876081 0.8079403
0.022671806 0.063658364 0.80250645
0.022380784 0.065011449 0.79220527
0.022242866 0.066767663 0.78732342
0.022161635 0.068672799 0.78444809
0.022145774 0.070771076 0.78388673
0.024998302 -9.6771226e-05 0.80663866
0.02491427 0.0021058819 0.80392712
0.024959242 0.0043159863 0.80537826
0.024879064 0.006501337 0.80279112
0.024965765 0.0087308735 0.80558878
0.025022563 0.010962637 0.80742151
0.025061136 0.013194847 0.80866617
0.025055692 0.015406809 0.80849051
0.024961641 0.017555492 0.80545568
0.025007345 0.019798189 0.80693042
0.024988249 0.021991942 0.80631429
0.025136171 0.024344068 0.81108737
0.025111591 0.026540035 0.81029427
0.025163112 0.028818808 0.8119567
0.025143771 0.03101927 0.81133258
0.025327781 0.033485163 0.81727022
0.025426313 0.03586302 0.82044959
0.025523946 0.038256947 0.82359999
0.025410796 0.040333569 0.81994891
0.025446139 0.042639013 0.82108933
0.025382629 0.044776317 0.81904
0.025432361 0.047112178 0.8206448
0.025321584 0.0491453 0.81707025
0.025283372 0.051306088 0.8158372
0.025140382 0.053238247 0.81122327
0.025183557 0.055555806 0.81261641
0.025119713 0.057635449 0.81055629
0.025084704 0.059772521 0.80942667
0.024872659 0.0614659 0.80258441
0.024731427 0.063303046 0.79802722
0.024461584 0.06477467 0.78931999
0.024335569 0.066592149 0.78525376
0.024211515 0.068392895 0.78125083
0.024208091 0.070523128 0.78114033
0.027231686 -9.685527e-05 0.80733919
0.027122248 0.0021063208 0.80409467
0.027156709 0.0043145823 0.8051163
0.027060131 0.0064969799 0.80225307
0.027113732 0.0087119443 0.80384219
0.027169267 0.010936394 0.80548865
0.027218357 0.013166747 0.80694401
0.027232124 0.015385116 0.80735213
0.027150318 0.017543966 0.80492687
0.027218418 0.019798568 0.8069458
0.027201686 0.021995636 0.80644977
0.027262947 0.024259387 0.80826598
0.027164917 0.026378408 0.80535966
0.027167395 0.028587267 0.80543315
0.027171666 0.030798562 0.80555975
0.027314657 0.033179052 0.80979902
0.027378628 0.035480369 0.81169558
0.027462268 0.037819158 0.81417525
0.027365094 0.039907847 0.81129432
0.027413975 0.042205617 0.81274354
0.02735072 0.044329572 0.8108682
0.027409758 0.046651397 0.81261849
0.027359495 0.048787903 0.81112832
0.027419237 0.051121343 0.81289953
0.027294578 0.053105712 0.80920374
0.027343461 0.055421572 0.81065297
0.027211795 0.057364758 0.80674946
0.027174734 0.059493683 0.80565071
0.026926605 0.061137352 0.79829443
0.026782248 0.062984757 0.79401469
0.026539711 0.064569853 0.78682417
0.02641557 0.066413216 0.78314376
0.026298663 0.068255194 0.77967781
0.026279883 0.07034082 0.77912104
0.029395012 -9.6696218e-05 0.80601341
0.029289462 0.0021037657 0.80311924
0.02932263 0.0043087536 0.80402869
0.029170632 0.0064776069 0.79986089
0.029232275 0.0086871143 0.80155116
0.02927364 0.010898333 0.80268538
0.029360594 0.013136163 0.80506968
0.029304868 0.015312502 0.80354166
0.029254669 0.017483775 0.80216521
0.02940098 0.019779706 0.80617708
0.029426577 0.022007341 0.80687892
0.029482581 0.024263846 0.80841458
0.029304473 0.026318507 0.80353081
0.029264249 0.028480601 0.80242789
0.02919231 0.030603407 0.80045533
0.029262098 0.032874625 0.80236888
0.029285856 0.035101164 0.80302036
0.029398184 0.037444077 0.80610043
0.029380715 0.039628796 0.80562139
0.029517477 0.042030502 0.80937141
0.029419709 0.044101186 0.80669063
0.029504204 0.046444092 0.80900747
0.029395292 0.048480712 0.80602109
0.029476404 0.050828643 0.80824518
0.029352374 0.052819613 0.80484432
0.029409241 0.055131055 0.80640358
0.029271664 0.057071924 0.8026312
0.029281132 0.05928988 0.80289084
0.029092731 0.061093729 0.79772484
0.028960614 0.062991701 0.79410219
0.028684732 0.064546324 0.78653747
0.028518176 0.066313721 0.7819705
0.028381227 0.068127163 0.77821535
0.028314294 0.070093356 0.77638006
0.031568602 -9.6590797e-05 0.80513465
0.031461425 0.0021018847 0.80240119
0.031449921 0.0042984597 0.80210781
0.031342477 0.0064736116 0.79936755
0.031401642 0.0086798025 0.8008765
0.031480841 0.010901199 0.80289644
0.031506218 0.013111264 0.80354363
0.031439178 0.015279957 0.80183381
0.031371169 0.017438747 0.80009931
0.031527229 0.019728243 0.80407953
0.031530596 0.02193333 0.80416536
0.031554226 0.0241544 0.80476809
0.03140251 0.026232295 0.80089867
0.031363007 0.028390564 0.79989111
0.031241164 0.030463029 0.79678363
0.031302866 0.032710265 0.79835731
0.031338632 0.034937207 0.79926944
0.031483918 0.037298892 0.80297488
0.031476423 0.039489213 0.80278379
0.031529956 0.041759308 0.80414909
0.031443451 0.043841626 0.80194283
0.031456608 0.046057783 0.80227834
0.031405963 0.048177905 0.80098671
0.031480785 0.050492182 0.80289501
0.031377383 0.05251861 0.80025774
0.03137587 0.05470825 0.80021918
0.031219214 0.056616321 0.79622382
0.031309184 0.058966998 0.79851842
0.031212114 0.060964905 0.79604274
0.031065186 0.062848382 0.79229546
0.030772565 0.064406395 0.78483236
0.030637596 0.066264495 0.78139007
0.030558458 0.068228394 0.77937168
0.030492889 0.070212476 0.77769941
0.03374764 -9.6514741e-05 0.8045007
0.033622134 0.0020995471 0.80150878
0.03362155 0.0042951754 0.8014949
0.033532027 0.0064735566 0.79936075
0.033611104 0.0086838054 0.80124581
0.03368191 0.010901705 0.80293375
0.033672724 0.013097739 0.80271477
0.033540171 0.01523653 0.79955488
0.03347525 0.017393148 0.79800725
0.03359234 0.019647744 0.80079854
0.033619456 0.021859132 0.80144495
0.033649713 0.024076307 0.80216622
0.033540487 0.026188528 0.79956239
0.033483084 0.02833033 0.79819405
0.033367041 0.030411188 0.79542768
0.033432662 0.032654326 0.796992
0.033474986 0.034881759 0.79800099
0.033564709 0.037167203 0.80013984
0.033515114 0.039301001 0.79895759
0.033551794 0.04153512 0.79983193
0.033507161 0.043668061 0.79876798
0.033601355 0.045985162 0.80101341
0.03352122 0.048064612 0.79910314
0.033502296 0.050225351 0.79865199
0.033375077 0.052214202 0.79561925
0.033360973 0.054370783 0.79528308
0.033275444 0.056404453 0.79324418
0.033354055 0.058715902 0.79511815
0.033234302 0.060675461 0.79226333
0.033095576 0.062583506 0.78895628
0.032793462 0.064153798 0.78175431
0.032770999 0.066249967 0.78121877
0.032660704 0.068159916 0.77858949
0.03263345 0.070234172 0.7779398
