# .PCD v0.7 - Point Cloud Data file format
VERSION 0.7
FIELDS x y z
SIZE 4 4 4
TYPE F F F
COUNT 1 1 1
WIDTH 784
HEIGHT 1
VIEWPOINT 0 0 0 1 0 0 0
POINTS 784
DATA ascii
-0.048468467 0.10103907 0.94677639
-0.0484212 0.10353167 0.94585311
-0.048524424 0.10634903 0.94786942
-0.048227362 0.10827872 0.94206667
-0.048132293 0.11064094 0.94020963
-0.047892973 0.11265369 0.93553478
-0.047902633 0.11523978 0.93572342
-0.04778884 0.11752332 0.93350065
-0.047918107 0.12040542 0.93602574
-0.047899481 0.12292184 0.93566185
-0.047904111 0.12549718 0.93575233
-0.047698315 0.12751049 0.93173236
-0.047633979 0.12988749 0.93047559
-0.047557496 0.13222386 0.9289816
-0.047611326 0.13492131 0.93003309
-0.047464617 0.1370455 0.9271673
-0.047452979 0.13955122 0.92693996
-0.047391988 0.1419079 0.92574859
-0.047535755 0.14488214 0.92855692
-0.047233433 0.14648828 0.92265141
-0.047115903 0.14864506 0.92035556
-0.046944275 0.15061569 0.91700304
-0.04703192 0.15341367 0.91871506
-0.04697746 0.1557499 0.9176513
-0.046901498 0.15800785 0.91616744
-0.046599407 0.15948376 0.9102664
-0.046415206 0.16133714 0.90666825
-0.04623162 0.16317296 0.90308213
-0.045874231 0.1010378 0.94676447
-0.045799792 0.10346326 0.94522816
-0.045880787 0.10624024 0.94689977
-0.045566723 0.10808923 0.940418
-0.045522165 0.11055725 0.93949842
-0.045283135 0.11253694 0.93456525
-0.045302514 0.11514641 0.93496519
-0.04514873 0.11730814 0.93179142
-0.045196149 0.11998663 0.93277007
-0.045222972 0.12261465 0.93332362
-0.045281693 0.12533398 0.9345355
-0.045187831 0.127629 0.93259835
-0.045138016 0.1300403 0.93157029
-0.045114197 0.13252233 0.93107867
-0.045127936 0.13511413 0.93136221
-0.044951733 0.13712806 0.92772573
-0.044865295 0.13940094 0.92594182
-0.04473203 0.14151593 0.92319143
-0.044781871 0.14420547 0.92422009
-0.04463882 0.14626859 0.92126775
-0.044555973 0.14851624 0.91955793
-0.04441588 0.15056044 0.91666663
-0.044447552 0.15318076 0.91732031
-0.04442523 0.15561554 0.91685963
-0.04440676 0.15806149 0.91647846
-0.044118159 0.15952857 0.91052216
-0.044013519 0.16163865 0.90836263
-0.043886017 0.16365162 0.9057312
-0.043343097 0.10118368 0.94813138
-0.043165315 0.10335536 0.94424242
-0.043246143 0.10614046 0.94601053
-0.042918306 0.10790775 0.93883908
-0.042904716 0.11044469 0.93854183
-0.042671289 0.11240092 0.93343562
-0.042693585 0.11501808 0.9339233
-0.042563342 0.11721785 0.93107426
-0.042533159 0.11968356 0.93041402
-0.042519379 0.1221928 0.93011254
-0.042553946 0.12484221 0.93086869
-0.042504199 0.12724337 0.92978048
-0.042519066 0.12983586 0.93010569
-0.042488039 0.13228725 0.92942697
-0.042556103 0.13504939 0.93091589
-0.042430956 0.13719495 0.92817831
-0.042392593 0.13961132 0.92733914
-0.042214982 0.14155614 0.92345387
-0.04210541 0.14371192 0.92105699
-0.041922029 0.14559823 0.91704553
-0.041880146 0.14796248 0.91612935
-0.041811474 0.15022545 0.91462713
-0.041848827 0.15286748 0.91544425
-0.041823838 0.15528251 0.91489756
-0.041892372 0.15804741 0.9163968
-0.04169286 0.15979318 0.91203249
-0.041604463 0.16194758 0.91009873
-0.041398983 0.16362861 0.90560389
-0.040671501 0.10099936 0.94640428
-0.040496595 0.1031465 0.94233429
-0.040546298 0.10585775 0.9434908
-0.040341478 0.10789462 0.93872482
-0.040319808 0.11040688 0.9382205
-0.040144753 0.11248659 0.93414712
-0.040154558 0.11507375 0.93437523
-0.040062174 0.11736279 0.93222553
-0.039982103 0.11967692 0.93036234
-0.039923925 0.12204777 0.92900854
-0.039923258 0.12459067 0.92899305
-0.039901551 0.12706648 0.9284879
-0.039940134 0.12973537 0.92938572
-0.039911654 0.13218705 0.92872304
-0.040000711 0.13503189 0.93079531
-0.039964311 0.13745657 0.92994827
-0.039940812 0.13992181 0.92940152
-0.039708339 0.14163864 0.92399198
-0.039560929 0.14363468 0.92056185
-0.039397351 0.14555219 0.9167555
-0.039373327 0.14797331 0.91619641
-0.039302666 0.15021314 0.91455215
-0.039290003 0.15266931 0.91425753
-0.039277252 0.15512353 0.91396081
-0.039349157 0.15791585 0.91563398
-0.039259776 0.16005979 0.91355419
-0.039116852 0.16197065 0.91022837
-0.03891794 0.16362786 0.90559977
-0.037988506 0.1007597 0.94415855
-0.037831414 0.10291882 0.94025421
-0.037954599 0.10583812 0.9433158
-0.037769031 0.1078922 0.93870378
-0.037698574 0.11025768 0.93695265
-0.037494425 0.11221346 0.93187881
-0.037528973 0.11487204 0.93273741
-0.037533522 0.11744147 0.93285048
-0.037528981 0.11998245 0.93273759
-0.037426561 0.12220325 0.93019211
-0.037395392 0.12464758 0.92941743
-0.037344672 0.12702116 0.92815685
-0.037447132 0.12991929 0.9307034
-0.037432101 0.13241574 0.93032974
-0.037544232 0.13536866 0.93311667
-0.037563551 0.13799585 0.93359679
-0.037637565 0.14083035 0.93543631
-0.037453916 0.14269327 0.93087196
-0.037341412 0.14480707 0.92807579
-0.037137177 0.14654359 0.9229998
-0.037120629 0.1490057 0.92258853
-0.036939472 0.15079358 0.91808611
-0.036868919 0.15301582 0.9163326
-0.036722846 0.15490988 0.91270208
-0.03676286 0.15758172 0.91369659
-0.036713954 0.15987179 0.91248107
-0.036668524 0.16217059 0.91135204
-0.036451872 0.16369429 0.90596741
-0.035272852 0.10039207 0.9407137
-0.035183046 0.10270695 0.93831861
-0.035273649 0.10554856 0.94073498
-0.035102323 0.1076005 0.93616581
-0.035050057 0.11000105 0.9347719
-0.034914799 0.11212745 0.93116456
-0.035000712 0.11496052 0.93345588
-0.035025615 0.11760131 0.93412006
-0.035045963 0.12023008 0.93466264
-0.034921218 0.1223535 0.93133575
-0.034924623 0.12491704 0.93142658
-0.034944791 0.12754226 0.93196452
-0.035149325 0.13085678 0.9374193
-0.035200749 0.13362001 0.93879074
-0.035346083 0.1367541 0.94266677
-0.035446316 0.13973163 0.94533998
-0.035547983 0.14272955 0.94805133
-0.035350911 0.14452103 0.94279552
-0.035225201 0.14658067 0.93944287
-0.035054024 0.14842942 0.93487763
-0.035082627 0.1511137 0.93564051
-0.034791581 0.15240195 0.92787844
-0.034567326 0.1539451 0.92189759
-0.034301236 0.15526614 0.91480106
-0.034263123 0.1575969 0.91378468
-0.034143537 0.1595414 0.91059536
-0.034142938 0.1620331 0.91057932
-0.033972897 0.1637082 0.90604436
-0.032625727 0.1001769 0.93869752
-0.032580338 0.10260548 0.93739158
-0.032653525 0.10540968 0.93949723
-0.032545127 0.10762493 0.93637842
-0.032492336 0.11001138 0.93485963
-0.032348942 0.11207559 0.93073392
-0.032377254 0.11472562 0.93154854
-0.032398909 0.11735599 0.93217152
-0.032472841 0.12018327 0.93429869
-0.032437071 0.12260755 0.93326956
-0.032542165 0.12556972 0.93629324
-0.032728765 0.1288694 0.94166207
-0.033091843 0.13290727 0.95210838
-0.03325877 0.13619913 0.95691121
-0.033451021 0.139623 0.96244252
-0.033480797 0.14238621 0.96329933
-0.033574671 0.14543174 0.96600014
-0.033396788 0.14729354 0.96088225
-0.033306554 0.14952075 0.95828605
-0.033107817 0.1512381 0.95256805
-0.033032492 0.15349762 0.95040083
-0.03265423 0.15431364 0.9395175
-0.032354265 0.15544625 0.9308871
-0.032000143 0.15626708 0.9206984
-0.031860724 0.15809748 0.91668707
-0.031639755 0.15949479 0.91032934
-0.031612158 0.16184732 0.90953535
-0.031468801 0.16359371 0.90541077
-0.029978765 0.099925466 0.9363414
-0.029979588 0.10249335 0.93636709
-0.030043732 0.10528327 0.93837053
-0.030020529 0.1077706 0.93764579
-0.030036306 0.11039723 0.9381386
-0.02991825 0.11252322 0.93445128
-0.029884482 0.11495322 0.93339658
-0.029813966 0.11723294 0.93119413
-0.029894169 0.12010614 0.93369913
-0.029981159 0.12302093 0.93641615
-0.030326435 0.12703252 0.94720036
-0.030743817 0.13141139 0.96023661
-0.031118657 0.13567621 0.97194421
-0.031212045 0.13875397 0.97486103
-0.031353228 0.14206429 0.97927064
-0.031310257 0.14454858 0.97792852
-0.031322617 0.14728568 0.97831458
-0.03110523 0.14892493 0.97152478
-0.030964639 0.15090124 0.96713364
-0.030752297 0.15249768 0.96050149
-0.030579707 0.15425833 0.95511085
-0.030341759 0.15565413 0.94767892
-0.030175675 0.15738404 0.94249153
-0.029917864 0.15859926 0.93443924
-0.029614408 0.15952449 0.92496121
-0.029183473 0.15970019 0.91150165
-0.029040992 0.16140532 0.90705144
-0.028902084 0.16310625 0.90271288
-0.027403789 0.099889353 0.93600303
-0.027365709 0.10231113 0.9347024
-0.027453974 0.10520996 0.93771714
-0.027439181 0.10772073 0.93721187
-0.027475893 0.11043574 0.93846583
-0.027358508 0.11252384 0.93445641
-0.027320514 0.11492392 0.9331587
-0.027256615 0.11720551 0.93097621
-0.027401634 0.12039303 0.93592942
-0.027706321 0.12432419 0.94633633
-0.028290348 0.12959194 0.96628433
-0.028727796 0.13428383 0.98122579
-0.029016685 0.13834925 0.9910931
-0.029043224 0.14119333 0.99199957
-0.029154483 0.14446218 0.99579972
-0.02905513 0.14668854 0.99240619
-0.029075662 0.14951277 0.9931075
-0.028860448 0.15110654 0.98575664
-0.028800696 0.15348855 0.98371577
-0.028567508 0.15491883 0.97575098
-0.028304471 0.15614083 0.96676672
-0.027956255 0.15683575 0.95487309
-0.027833987 0.15875421 0.95069689
-0.027640352 0.16023608 0.94408309
-0.027328057 0.16098271 0.93341637
-0.026798537 0.16037095 0.91533005
-0.026546927 0.16134921 0.90673608
-0.02638616 0.16284101 0.90124494
-0.024877736 0.10004254 0.93743849
-0.024840277 0.10245611 0.93602693
-0.024889518 0.10522851 0.93788242
-0.024822308 0.10750671 0.93534982
-0.024846075 0.11017445 0.93624544
-0.024801537 0.11253718 0.93456715
-0.024828553 0.11522275 0.93558514
-0.024819588 0.11774322 0.93524736
-0.0250719 0.1215283 0.9447549
-0.025572181 0.12659304 0.96360642
-0.026253792 0.13267741 0.98929071
-0.026563641 0.13698539 1.0009664
-0.026817109 0.14106077 1.0105176
-0.026828872 0.14389212 1.0109608
-0.026936702 0.14725108 1.0150241
-0.026851067 0.14955473 1.0117972
-0.026840014 0.15226381 1.0113807
-0.026628051 0.1538101 1.0033935
-0.026541894 0.15605229 1.000147
-0.026328174 0.15751353 0.99209362
-0.026051121 0.15854523 0.98165375
-0.025683938 0.15896186 0.9678176
-0.025463464 0.16022585 0.95950973
-0.025163537 0.16093618 0.94820797
-0.024892176 0.16177022 0.93798256
-0.024411647 0.16116731 0.91987538
-0.024135644 0.16183659 0.90947509
-0.023950769 0.16306934 0.90250862
-0.022339446 0.10017611 0.93869007
-0.02229147 0.10252696 0.93667418
-0.022310114 0.10518083 0.9374575
-0.022235734 0.10738973 0.93433213
-0.022260292 0.11007074 0.93536407
-0.022259314 0.11262818 0.93532294
-0.022353077 0.11567569 0.93926287
-0.022471739 0.11887648 0.94424891
-0.022852099 0.12351912 0.96023142
-0.023457376 0.12949093 0.98566478
-0.023990102 0.13519323 1.0080496
-0.024257492 0.13949236 1.0192852
-0.024493398 0.14366838 1.0291978
-0.024465762 0.14632255 1.0280366
-0.024602674 0.14997342 1.0337895
-0.024526143 0.15233012 1.0305737
-0.024539737 0.15523933 1.031145
-0.024302399 0.15653537 1.0211722
-0.024212873 0.15874587 1.0174103
-0.023960736 0.15985094 1.0068157
-0.023707589 0.1608911 0.99617857
-0.023339877 0.1610823 0.98072755
-0.023067104 0.161855 0.96926582
-0.022712979 0.16198471 0.9543857
-0.022377789 0.1621701 0.94030118
-0.022015473 0.16207865 0.9250769
-0.021736784 0.16252907 0.91336656
-0.021561258 0.16369855 0.90599102
-0.019747555 0.10007281 0.93772209
-0.019722395 0.10251088 0.93652731
-0.019711051 0.10501604 0.93598872
-0.019662298 0.10731405 0.93367362
-0.019690443 0.11002909 0.93501014
-0.019747926 0.1129192 0.93773973
-0.019954937 0.11669872 0.94756967
-0.020212224 0.12083267 0.95978713
-0.020736532 0.12666458 0.98468411
-0.021273546 0.1327122 1.0101845
-0.02172292 0.13834137 1.0315232
-0.021920174 0.14244905 1.04089
-0.022064701 0.14625853 1.0477529
-0.022093516 0.14932355 1.0491211
-0.022160113 0.15265638 1.0522835
-0.022101304 0.15512629 1.0494909
-0.022073142 0.1578 1.0481538
-0.021899544 0.15940775 1.0399103
-0.021740457 0.16107784 1.032356
-0.021469079 0.16185997 1.0194695
-0.021226812 0.16279475 1.0079653
-0.020941194 0.16332839 0.99440259
-0.020667965 0.16388595 0.98142821
-0.020269373 0.16336207 0.96250093
-0.019906672 0.1630284 0.94527781
-0.019548109 0.16263482 0.92825133
-0.019319633 0.16324715 0.91740197
-0.019115893 0.16401228 0.90772736
-0.017137183 0.099830948 0.93545574
-0.017114345 0.10225713 0.93420905
-0.01711775 0.10483722 0.93439496
-0.017091535 0.10723248 0.93296397
-0.017137581 0.11008409 0.9354775
-0.017226869 0.11323369 0.94035137
-0.017507765 0.1176981 0.95568442
-0.017835256 0.12256673 0.97356099
-0.018357927 0.12890379 1.0020916
-0.018915743 0.13564923 1.0325408
-0.019302307 0.14130779 1.0536419
-0.019440072 0.14522333 1.061162
-0.019528873 0.14880699 1.0660093
-0.019492598 0.15144546 1.0640292
-0.019562298 0.15491229 1.0678339
-0.019464931 0.15705197 1.062519
-0.019499183 0.16024418 1.0643886
-0.019351637 0.16192542 1.0563346
-0.019223569 0.16372845 1.0493438
-0.018943803 0.16417848 1.0340725
-0.01870683 0.16492209 1.021137
-0.018420445 0.1651518 1.0055043
-0.018181797 0.16573103 0.99247736
-0.017825743 0.16515112 0.97304165
-0.017471585 0.16448259 0.95370954
-0.017042398 0.16299057 0.93028176
-0.016856793 0.16373621 0.92015034
-0.01663579 0.16407719 0.9080866
-0.014540377 0.099596955 0.93326318
-0.014544028 0.10217924 0.93349749
-0.014546297 0.10475286 0.9336431
-0.01450171 0.10698162 0.93078136
-0.014546255 0.1098679 0.93364042
-0.01464798 0.1132118 0.94016963
-0.014990853 0.11849765 0.96217662
-0.015361721 0.12413029 0.98598051
-0.01594295 0.13163015 1.0232862
-0.016440665 0.13863024 1.0552318
-0.016761573 0.14428337 1.0758289
-0.016841527 0.14793286 1.0809608
-0.016854456 0.15100995 1.0817906
-0.016814807 0.15361126 1.0792458
-0.016839171 0.15679468 1.0808095
-0.016761009 0.15901399 1.0757928
-0.016760182 0.16195308 1.0757396
-0.016671656 0.16402905 1.0700577
-0.016530739 0.16554919 1.0610131
-0.016320255 0.16631085 1.0475032
-0.016073845 0.16662613 1.0316877
-0.015820811 0.16678485 1.0154468
-0.015571251 0.16689186 0.99942899
-0.015244429 0.16606943 0.97845221
-0.014945108 0.16543649 0.9592405
-0.014539455 0.16350256 0.933204
-0.014353937 0.16394019 0.92129666
-0.014135017 0.16392522 0.90724546
-0.011971623 0.09949626 0.93231964
-0.011978903 0.10211238 0.9328866
-0.011993303 0.10479381 0.93400806
-0.0119604 0.10705797 0.93144566
-0.012004485 0.11001365 0.93487895
-0.012086504 0.11334386 0.94126636
-0.012353619 0.11848434 0.96206856
-0.012693203 0.12444931 0.98851448
-0.013290849 0.13314436 1.0350577
-0.013699695 0.14016281 1.0668975
-0.013982722 0.1460416 1.088939
-0.014059114 0.14983888 1.0948882
-0.014100398 0.15328708 1.0981033
-0.014034492 0.15556476 1.0929707
-0.014081424 0.15908916 1.0966257
-0.014021498 0.16140349 1.0919588
-0.013989607 0.16402097 1.0894752
-0.013876759 0.16565838 1.0806869
-0.013749203 0.16706891 1.0707531
-0.01360657 0.16823861 1.0596452
-0.013414863 0.16873021 1.0447155
-0.013175809 0.16853438 1.0260986
-0.012928189 0.16812517 1.0068146
-0.01261174 0.16670051 0.9821704
-0.012364607 0.16607183 0.9629243
-0.011991479 0.16361855 0.93386608
-0.011806824 0.16361792 0.91948557
-0.011622464 0.16354263 0.90512806
-0.0093750013 0.099046551 0.92810565
-0.0093770502 0.10161126 0.92830849
-0.0093868636 0.10426333 0.92927998
-0.0093576843 0.10647704 0.9263913
-0.0093764728 0.10923373 0.92825133
-0.0093976492 0.11202908 0.93034768
-0.0095251827 0.11613264 0.94297326
-0.0097670993 0.12173098 0.96692252
-0.010465778 0.13327719 1.0360903
-0.010813333 0.14063576 1.0704975
-0.011030522 0.14645195 1.0919987
-0.01114306 0.15096813 1.1031398
-0.0111934 0.1546858 1.1081233
-0.011168736 0.15737393 1.1056817
-0.011166671 0.16037326 1.1054772
-0.011172644 0.16348907 1.1060685
-0.011133056 0.16592908 1.1021494
-0.011033172 0.16743259 1.0922611
-0.010917299 0.16863495 1.0807899
-0.010796142 0.16969141 1.0687956
-0.010650264 0.17028691 1.054354
-0.010447651 0.16988073 1.0342957
-0.010205822 0.16871639 1.0103551
-0.009921913 0.16671382 0.98224878
-0.0096987607 0.16559458 0.9601571
-0.0094214678 0.16341525 0.9327057
-0.0092418315 0.16280587 0.91492212
-0.0090954443 0.16269378 0.90043008
-0.0067964569 0.098524176 0.9232108
-0.0067845779 0.10087666 0.92159724
-0.0067948233 0.10355749 0.92298895
-0.0067939586 0.10607248 0.92287147
-0.0068022525 0.10873322 0.92399806
-0.0068029673 0.11127617 0.92409515
-0.0068383813 0.11440014 0.92890573
-0.0069302907 0.1185166 0.9413904
-0.0073334943 0.12814082 0.99616039
nan nan nan
-0.0079221986 0.14432351 1.0761282
-0.0080880728 0.15035507 1.0986601
-0.0081562959 0.15465844 1.1079273
-0.008141241 0.1574025 1.1058824
-0.0081698494 0.16099581 1.1097685
-0.0082100192 0.1648425 1.115225
-0.008191756 0.16752413 1.1127442
-0.0081175407 0.1690271 1.102663
-0.0080151204 0.16987704 1.0887505
-0.0079084523 0.17055915 1.0742611
-0.0077992012 0.17110524 1.0594207
-0.0076413448 0.17048554 1.0379779
-0.0074751521 0.16955929 1.0154028
-0.0072541079 0.16724472 0.98537678
-0.007042083 0.16497695 0.95657593
-0.0067957654 0.16173524 0.92311692
-0.0066925446 0.16176909 0.9090957
-0.0065927869 0.1618111 0.89554489
-0.0042421925 0.097943209 0.91776687
-0.0042374842 0.10034589 0.91674823
-0.0042468575 0.10308482 0.91877609
-0.0042465222 0.10559342 0.9187035
-0.0042499267 0.10819685 0.91944003
-0.0042470195 0.11063989 0.91881108
-0.0042569251 0.11342087 0.92095417
-0.0042754696 0.11644886 0.9249661
-0.0043616001 0.1213797 0.94359976
-0.0046274611 0.13152094 1.0011169
-0.0047441907 0.1376503 1.0263704
-0.0049031046 0.14516699 1.0607502
-0.004955871 0.1496664 1.0721658
-0.0050450237 0.15534881 1.0914534
-0.0050792615 0.15941337 1.0988605
-0.0051256167 0.16390599 1.1088891
-0.005131436 0.16713329 1.1101481
-0.0050976649 0.16905454 1.102842
-0.005052919 0.17056528 1.0931615
-0.004978457 0.17100231 1.0770522
-0.0049019405 0.17127928 1.0604984
-0.0047901738 0.17021298 1.0363185
-0.0046817837 0.16913618 1.0128691
-0.0045149047 0.16578326 0.97676611
-0.0043499735 0.16230519 0.94108444
-0.0042377259 0.16062857 0.9168005
-0.0041891034 0.16126831 0.90628141
-0.0041357866 0.16166687 0.89474666
-0.0017224812 0.097630113 0.91483307
-0.0017212012 0.10006185 0.91415322
-0.0017270282 0.10291336 0.91724801
-0.0017265317 0.10539582 0.91698426
-0.0017294751 0.10809182 0.91854757
-0.0017266599 0.11042812 0.91705245
-0.0017281512 0.11303788 0.91784447
-0.0017266506 0.11545195 0.9170475
-0.0017359696 0.11860082 0.92199689
-0.0017781679 0.12407099 0.94440901
-0.0018530177 0.13198967 0.98416275
-0.0018593374 0.1351451 0.9875192
-0.0019067742 0.1413673 1.0127136
-0.0019207407 0.14519738 1.0201313
nan nan nan
nan nan nan
-0.0020449464 0.16351263 1.0860987
-0.002047735 0.16671498 1.0875797
-0.0020395152 0.16901319 1.083214
-0.0020172698 0.17010479 1.0713992
-0.0019831422 0.17011243 1.0532737
-0.0019338937 0.16870166 1.027117
-0.0018664279 0.16553193 0.99128509
-0.0017929295 0.16162206 0.95224905
-0.0017453688 0.1598742 0.92698896
-0.0017174762 0.15981813 0.91217482
-0.001702224 0.16087554 0.90407419
-0.0016812643 0.16134082 0.89294213
0.00078253919 0.097489342 0.91351402
0.00078196271 0.099918216 0.91284102
0.00078404834 0.10269208 0.91527575
0.00078347669 0.10512275 0.91460842
0.00078505737 0.10784542 0.91645366
0.00078359671 0.11015069 0.91474855
0.00078342599 0.11263206 0.91454923
0.00078162184 0.11487228 0.91244316
0.000782869 0.11755916 0.91389906
0.00078807236 0.12086076 0.91997325
0.00079864514 0.12503627 0.93231565
0.0008068927 0.12890793 0.94194359
0.0008156547 0.13291617 0.9521721
0.00082150055 0.13649592 0.95899642
0.00082961289 0.14049691 0.96846652
0.00085693633 0.14786465 1.0003631
0.00086757913 0.15247557 1.0127872
0.00087521179 0.1566159 1.0216974
0.00089972588 0.16387989 1.0503144
nan nan nan
0.00087370223 0.16472799 1.0199351
0.00083756208 0.16059262 0.97774619
0.0008086231 0.15762986 0.94396365
0.0007919296 0.15690826 0.92447615
0.00078612007 0.15827118 0.91769427
0.000778377 0.15920146 0.90865517
0.00077146449 0.16025478 0.90058571
0.00076268904 0.16087092 0.89034152
0.0032896425 0.097624861 0.91478384
0.0032803707 0.099848658 0.91220558
0.003287375 0.10256615 0.91415328
0.0032813665 0.10487839 0.91248244
0.0032914835 0.10770916 0.91529578
0.0032815419 0.10988368 0.9125312
0.0032816597 0.11238756 0.91256398
0.0032764741 0.11470595 0.91112196
0.0032822799 0.11740962 0.91273648
0.0032890183 0.1201562 0.91461027
0.0033013532 0.12312176 0.91804034
0.0032950183 0.12539561 0.91627878
0.0033070717 0.12837361 0.91963059
0.0033292116 0.1317692 0.92578721
0.0034150581 0.13776854 0.94965941
0.0034854866 0.14326493 0.96924418
0.0034876526 0.14601082 0.96984649
0.0035172771 0.14993048 0.9780845
0.003517682 0.15262745 0.97819704
0.0034388662 0.15182744 0.95627999
0.0033684543 0.15128478 0.93669981
0.0033243275 0.1518354 0.92442906
0.0033033644 0.15339439 0.91859961
0.0032882858 0.15519919 0.9144066
0.0032772818 0.15717641 0.91134655
0.0032498781 0.15833788 0.90372616
0.0032188536 0.15927842 0.89509887
0.0031853814 0.16004871 0.88579094
0.005795449 0.097621344 0.91475087
0.0057683201 0.099658564 0.91046888
0.0057805763 0.10236981 0.91240335
0.0057669505 0.1046221 0.91025269
0.0057852436 0.10745548 0.91314006
0.0057705306 0.10967735 0.91081774
0.0057752035 0.11226334 0.91155535
0.0057721338 0.11469951 0.91107082
0.0057805087 0.11736539 0.91239268
0.0057818904 0.11989352 0.91261077
0.0057796086 0.12234528 0.91225064
0.0057631577 0.124489 0.90965402
0.0057605277 0.12692301 0.90923887
0.0057616523 0.1294391 0.90941638
0.005810475 0.13304836 0.91712254
0.005847801 0.1364316 0.92301404
0.0059024715 0.1402593 0.93164325
0.0059022568 0.14280631 0.93160939
0.0058863033 0.14496551 0.92909127
0.0058346442 0.14621614 0.92093742
0.0058042952 0.14796537 0.91614717
0.0057916972 0.15014851 0.9141587
0.0057847765 0.15247039 0.91306633
0.0057386272 0.15373538 0.9057821
0.0057144165 0.15555768 0.90196073
0.0056813108 0.15711303 0.89673531
0.0056486563 0.15865247 0.89158118
0.0056017847 0.15975818 0.88418299
0.0082967468 0.097566925 0.91424096
0.0082578771 0.099602625 0.90995783
0.0082760882 0.10232057 0.91196448
0.0082488786 0.10447425 0.90896624
0.0082621239 0.10713607 0.91042572
0.0082310364 0.10921766 0.90700018
0.0082427515 0.11186133 0.90829104
0.0082446514 0.11437591 0.90850043
0.008274328 0.11728537 0.91177058
0.0082599465 0.11957495 0.91018587
0.0082504526 0.12192806 0.90913969
0.0082086753 0.12378859 0.90453607
0.0082115503 0.12631077 0.90485293
0.0081788627 0.1282769 0.90125102
0.0082056876 0.13117467 0.90420693
0.0082081733 0.13369219 0.90448081
0.008259424 0.13702022 0.9101283
0.0082642445 0.1395949 0.91065943
0.0082965689 0.14264537 0.91422135
0.0082646152 0.14459081 0.91070026
0.0082417205 0.14667818 0.90817744
0.0082163718 0.14870733 0.90538424
0.0082106218 0.15108179 0.90475065
0.0081551336 0.15252252 0.89863616
0.0081241149 0.15439482 0.89521819
0.0080868853 0.15612845 0.89111573
0.0080454908 0.15775798 0.88655442
0.0079889698 0.15906133 0.88032621
0.010779065 0.097366296 0.91236103
0.010751032 0.099605955 0.90998828
0.010750335 0.10209222 0.90992928
0.010722011 0.10430939 0.90753192
0.010719926 0.10677477 0.90735543
0.010693614 0.10899226 0.90512836
0.010700611 0.11154476 0.90572059
0.010706189 0.11408538 0.90619266
0.010737134 0.11690478 0.90881193
0.010701306 0.11899605 0.90577936
0.010691572 0.1213669 0.90495545
0.010650321 0.12336815 0.90146387
0.010667329 0.12603864 0.9029035
0.010622546 0.12797259 0.89911294
0.010640577 0.13065709 0.90063918
0.010622127 0.13289352 0.89907748
0.010667912 0.13593994 0.90295279
0.010655343 0.13825046 0.90188891
0.010706719 0.14139967 0.90623754
0.010684005 0.14357702 0.90431499
0.010661123 0.14574157 0.90237826
0.01059723 0.14732534 0.89697015
0.010588598 0.14966054 0.89623958
0.01054697 0.15151773 0.89271611
0.010543884 0.15391824 0.89245486
0.010492351 0.15559885 0.88809299
0.010448258 0.15736766 0.88436091
0.010378568 0.15872453 0.87846226
0.013256303 0.097203955 0.9108398
0.013225247 0.099465594 0.90870595
0.013218839 0.10190555 0.90826559
0.01317829 0.10407349 0.90547949
0.013189617 0.10664559 0.90625775
0.013160691 0.10888893 0.90427023
0.013168686 0.1114338 0.90481961
0.013174523 0.113963 0.90522063
0.013193433 0.11660996 0.90652001
0.013134343 0.11855995 0.90245986
0.013110793 0.1208152 0.90084177
0.013057781 0.12278453 0.89719933
0.013100657 0.12565361 0.90014529
0.013037964 0.12750641 0.89583766
0.013052646 0.1301069 0.89684653
0.013005868 0.13208868 0.89363235
0.01306038 0.13510063 0.89737791
0.013056006 0.13751291 0.89707738
0.013113341 0.14058509 0.90101689
0.013073123 0.14261465 0.8982535
0.013047945 0.14479597 0.89652348
0.012957153 0.14622734 0.89028519
0.012961878 0.14872046 0.89060986
0.012967505 0.15122586 0.89099652
0.012987382 0.15390226 0.89236224
0.012900218 0.15529755 0.88637322
0.012823161 0.15678358 0.8810786
0.0127358 0.1581127 0.87507606
0.015707964 0.096935205 0.9083215
0.015684949 0.099277839 0.90699065
0.015670098 0.10166616 0.90613186
0.015643992 0.10397495 0.9046222
0.015672894 0.1066498 0.90629351
0.015639819 0.10890226 0.90438098
0.015626974 0.11128831 0.90363824
0.015623519 0.11373863 0.90343839
0.015631156 0.11627036 0.90388
0.015560457 0.11820944 0.89979178
0.015518918 0.12035224 0.89738977
0.015473912 0.12245444 0.89478731
0.015514592 0.12523404 0.89713961
0.01546975 0.12732266 0.89454663
0.015479396 0.12985416 0.89510441
0.015435986 0.13193522 0.89259422
0.015469266 0.13467017 0.89451861
0.015445863 0.13691323 0.89316535
0.015484538 0.13970895 0.89540172
0.01540988 0.14147645 0.89108461
0.015396838 0.14379574 0.89033043
0.015293621 0.14525445 0.88436186
0.015318641 0.14791872 0.88580865
0.015316042 0.15031984 0.88565838
0.015352519 0.15310985 0.88776767
0.015242763 0.15442988 0.88142097
0.0151672 0.15606698 0.87705147
0.015078952 0.15754759 0.87194848
0.018169347 0.096791752 0.9069773
0.018128134 0.099051192 0.90491998
0.018140249 0.10159804 0.90552473
0.018116625 0.10394315 0.90434551
0.018172076 0.10674629 0.90711349
0.018110989 0.10886411 0.90406412
0.018104862 0.1113031 0.90375835
0.018069452 0.11355636 0.90199065
0.018065663 0.11600301 0.90180159
0.01798569 0.11794901 0.89780945
0.017937899 0.12008858 0.89542383
0.017890839 0.12222007 0.89307469
0.017925829 0.12491043 0.89482135
0.017897233 0.12715858 0.89339387
0.017911445 0.12970893 0.89410329
0.017835002 0.13159426 0.89028746
0.017847838 0.13412963 0.89092815
0.017785436 0.13609278 0.88781315
0.017789647 0.13855773 0.88802344
0.017684501 0.1401571 0.88277471
0.01768627 0.1425897 0.88286304
0.0176515 0.14472319 0.88112742
0.017688325 0.14744395 0.88296556
0.017668672 0.14969631 0.88198459
0.017648017 0.15193465 0.88095355
0.017533647 0.1533477 0.87524438
0.017479099 0.15526089 0.87252146
0.017398214 0.15692158 0.86848384
0.020618655 0.096626215 0.90542614
0.020599106 0.099012628 0.90456766
0.02061802 0.10158385 0.90539825
0.020620901 0.10407869 0.90552473
0.020616941 0.10653888 0.90535086
0.020536706 0.10859478 0.90182751
0.020556029 0.11116981 0.90267605
0.020495456 0.11330777 0.90001607
0.020489579 0.11574014 0.89975804
0.02039735 0.11767293 0.89570796
0.020385213 0.12005521 0.89517504
0.020368516 0.12240715 0.89444178
0.020396698 0.1250302 0.89567935
0.020379962 0.12737927 0.89494443
0.020353923 0.12966506 0.89380091
0.020252571 0.13145573 0.8893503
0.020204656 0.13357531 0.88724619
0.020107353 0.1353509 0.88297337
0.02008019 0.13758366 0.88178056
0.01997075 0.13923624 0.8769747
0.019973984 0.14166163 0.87711674
0.01997811 0.14409421 0.87729794
0.020016506 0.14677908 0.87898397
0.01997792 0.14889944 0.87728953
0.019959809 0.15116557 0.87649429
0.019834355 0.15260147 0.87098515
0.019788699 0.15463077 0.86898035
0.019704826 0.15634581 0.8652972
