# .PCD v0.7 - Point Cloud Data file format
VERSION 0.7
FIELDS x y z
SIZE 4 4 4
TYPE F F F
COUNT 1 1 1
WIDTH 256
HEIGHT 1
VIEWPOINT 0 0 0 1 0 0 0
POINTS 256
DATA ascii
-0.010422137 0.022137461 0.81164962
-0.010421825 0.024360213 0.8116253
-0.010384106 0.026487421 0.80868793
-0.010403365 0.028756021 0.8101877
-0.010393027 0.030944722 0.80938268
-0.010416671 0.033237435 0.81122392
-0.010426299 0.035492528 0.81197375
-0.010442913 0.037776999 0.81326759
-0.010462092 0.04007839 0.81476128
-0.01050212 0.042472277 0.81787854
-0.010440199 0.044449188 0.81305623
-0.010366924 0.046348929 0.8073498
-0.010306653 0.048278309 0.80265599
-0.0102831 0.050361808 0.80082184
-0.010271391 0.052495781 0.79990989
-0.01027251 0.054693066 0.79999709
-0.0082052704 0.022155328 0.81230468
-0.0082075167 0.02438728 0.81252706
-0.0081750732 0.026507966 0.8093152
-0.0081915306 0.028782882 0.8109445
-0.008185559 0.030981833 0.81035334
-0.0082303528 0.033383455 0.81478781
-0.0082540661 0.03571815 0.81713533
-0.00835755 0.038432535 0.82738006
nan nan nan
nan nan nan
-0.008401487 0.045470059 0.83172977
-0.0082468102 0.046869468 0.81641704
-0.0081960196 0.048803575 0.81138885
-0.0081949616 0.051019754 0.81128412
-0.0081717065 0.053091154 0.8089819
-0.0081318263 0.055037413 0.80503386
-0.0059688883 0.022114187 0.81079632
-0.0059761899 0.024365101 0.81178814
-0.0059670759 0.026548415 0.81055015
-0.0059895213 0.0288771 0.81359905
-0.0060124802 0.03122516 0.81671774
-0.0061334306 0.034135677 0.83314729
-0.0063631916 0.037782289 0.86435735
nan nan nan
nan nan nan
nan nan nan
nan nan nan
nan nan nan
nan nan nan
nan nan nan
nan nan nan
-0.0060759587 0.056425702 0.82534045
-0.0037414259 0.022076912 0.80942971
-0.0037528384 0.024368418 0.81189871
-0.0037559976 0.026614971 0.81258219
-0.003827546 0.029390404 0.82806116
nan nan nan
nan nan nan
nan nan nan
nan nan nan
-0.0050030006 0.053241763 1.0823621
-0.0050455891 0.056685321 1.0915757
-0.0049491543 0.058535084 1.0707128
-0.0048714434 0.060503095 1.0539006
nan nan nan
nan nan nan
nan nan nan
-0.0041622636 0.061562385 0.90047485
-0.0015261045 0.022107052 0.81053472
-0.0015367785 0.024497634 0.81620383
-0.0015807006 0.027497659 0.83953148
nan nan nan
nan nan nan
nan nan nan
-0.0020101233 0.046666477 1.0676037
-0.0020371561 0.050258052 1.0819612
-0.002053055 0.053637411 1.0904052
-0.0020468067 0.056452204 1.0870867
-0.0020237053 0.05875947 1.0748172
-0.0020032946 0.061081562 1.0639769
-0.0019598955 0.062609874 1.0409269
-0.0019080198 0.06372878 1.013375
-0.0018448551 0.064303257 0.97982746
nan nan nan
0.00069995574 0.022286348 0.81710845
0.00072172761 0.025287619 0.84252429
nan nan nan
nan nan nan
0.00092074403 0.041094217 1.0748504
0.00093585788 0.044761617 1.0924939
0.00093512016 0.047716822 1.0916327
0.00094146415 0.051051307 1.0990385
0.00093103189 0.053463027 1.0868602
0.00092667952 0.056176595 1.0817794
0.00090935058 0.058034163 1.06155
0.00090154237 0.060418952 1.0524349
0.00088361377 0.062043197 1.0315056
0.00086325046 0.063374028 1.0077341
0.00083662965 0.064095229 0.97665769
0.00081039855 0.064677261 0.94603622
0.0030037563 0.022782097 0.83528459
0.0032729378 0.027317002 0.91013861
nan nan nan
0.0037845727 0.03735337 1.0524141
0.0038745478 0.041193005 1.0774343
0.0039335173 0.044816468 1.0938326
0.0039344183 0.047823928 1.0940831
0.0039237239 0.050682988 1.0911093
0.0038889057 0.053195767 1.081427
0.0038429643 0.055494871 1.0686516
0.0037842456 0.057529733 1.0523231
0.0037332152 0.059597872 1.0381325
0.0036605441 0.061226301 1.0179242
0.0035802897 0.062611386 0.99560702
0.0034799438 0.063507549 0.96770287
0.003387661 0.064404108 0.9420408
0.0054960228 0.023660475 0.86748958
nan nan nan
0.0063183433 0.032664623 0.99728423
0.0065267454 0.036564156 1.0301783
0.0066827503 0.040327717 1.0548021
0.0067637325 0.043741021 1.0675843
0.0067655626 0.046678256 1.0678731
0.0067757205 0.049678128 1.0694765
0.0067202728 0.052177411 1.0607246
0.0066770571 0.054729007 1.0539035
0.0066026635 0.056974191 1.0421612
0.0064983899 0.058884293 1.0257027
0.0063722846 0.060496952 1.0057983
0.0062410482 0.061949626 0.98508406
0.006096127 0.063147053 0.9622097
0.0059511308 0.064218342 0.9393236
0.0080888355 0.024310732 0.8913306
0.0086897975 0.028740082 0.95755225
0.0089592598 0.032335803 0.98724502
0.009200451 0.035983641 1.0138226
0.0093366019 0.039334565 1.0288254
0.0094260462 0.042556819 1.0386815
0.0094440281 0.04548886 1.040663
0.0095036123 0.048644699 1.0472287
0.0094582783 0.051267814 1.0422332
0.0093860868 0.053709872 1.0342783
0.0092824819 0.055919103 1.0228617
0.0091684042 0.057999536 1.0102912
0.0090185953 0.05977428 0.99378341
0.0088496031 0.061325628 0.97516167
0.0086635053 0.062651269 0.95465511
0.0084812287 0.063893318 0.93456948
0.010534971 0.024320818 0.89170045
0.011288826 0.028678732 0.95550823
0.011599635 0.032157976 0.9818157
0.011837796 0.0355631 1.0019741
0.011960709 0.038705725 1.0123776
0.01203308 0.041730076 1.0185033
0.012062053 0.044627428 1.0209557
0.012108622 0.047607385 1.0248973
0.012041456 0.050135404 1.0192122
0.011934191 0.052456021 1.0101331
0.011806675 0.054633182 0.99933994
0.011704727 0.056875452 0.99071085
0.011557035 0.058837563 0.97820997
0.011396785 0.06066433 0.9646461
0.011180947 0.062108003 0.9463771
0.010968587 0.063471705 0.92840254
0.012777191 0.023944961 0.87791997
0.013609683 0.028066812 0.93512052
0.014122176 0.031781901 0.97033381
0.014446001 0.035229813 0.99258387
0.014507399 0.038110249 0.99680251
0.014631322 0.041189816 1.0053172
0.014611716 0.043884963 1.0039701
0.014624152 0.046674993 1.0048246
0.01449893 0.049004439 0.99622065
0.014379397 0.051307041 0.98800749
0.0142464 0.053514067 0.97886926
0.014177456 0.055923693 0.97413218
0.01404163 0.058030948 0.96479952
0.013885437 0.059999064 0.95406747
0.013637033 0.061492596 0.93699974
0.013368907 0.062799953 0.91857678
0.014808602 0.023355704 0.85631537
0.015516957 0.026930954 0.8972764
0.016178373 0.030641729 0.93552315
0.016726276 0.034329075 0.96720594
0.016929587 0.037428182 0.97896254
0.01698521 0.040241793 0.98217887
0.016950881 0.042845666 0.98019379
0.016974786 0.04559508 0.98157614
0.016916854 0.048119288 0.97822624
0.016845211 0.050583962 0.97408336
0.016702585 0.052801546 0.96583599
0.016594496 0.055088595 0.95958567
0.016413091 0.057086397 0.94909579
0.016235095 0.059039123 0.93880308
0.015959674 0.06056574 0.92287672
0.015698791 0.062062562 0.90779096
0.016933955 0.023055509 0.84530902
0.017596856 0.026364386 0.87839967
0.01800509 0.029438188 0.89877784
0.018682297 0.033100188 0.93258268
0.019033255 0.036324766 0.95010179
0.019190444 0.039249022 0.95794833
0.019099424 0.041674685 0.95340484
0.019213794 0.044551689 0.95911396
0.019207615 0.047163978 0.95880556
0.019170083 0.049693298 0.95693201
0.0190075 0.051871087 0.94881618
0.018870169 0.05407678 0.94196087
0.018660104 0.05602653 0.93147486
0.018469147 0.057978809 0.92194265
0.018223265 0.059698939 0.90966874
0.017994959 0.061411794 0.89827216
0.019138187 0.022922009 0.8404144
0.019683056 0.025942434 0.8643412
0.020039815 0.028823394 0.88000757
0.020502886 0.031955883 0.9003424
0.02091898 0.035120919 0.91861433
0.021230575 0.03819805 0.93229735
0.021259572 0.040807705 0.93357074
0.021357464 0.043564864 0.93786943
0.021344472 0.046106055 0.93729889
0.021323131 0.048625089 0.93636179
0.021222722 0.05094916 0.93195248
0.021090459 0.053168781 0.92614448
0.020862862 0.05510477 0.91615003
0.02061343 0.056925699 0.90519673
0.020374537 0.05871699 0.89470619
0.02015914 0.060521342 0.88524747
0.021293398 0.022764776 0.83464956
0.021837313 0.02569117 0.85596967
0.022297252 0.028626567 0.87399822
0.022641623 0.031499952 0.88749671
0.022973454 0.034428507 0.9005037
0.02325985 0.037355352 0.91172969
0.023446497 0.0401728 0.91904581
0.023511281 0.042808447 0.9215852
0.023461984 0.045238044 0.91965288
0.023425126 0.047682371 0.91820812
0.023333918 0.050002314 0.91463298
0.023230331 0.052274819 0.91057265
0.022993973 0.054212045 0.90130794
0.022743933 0.056064785 0.89150703
0.022483764 0.057837773 0.88130903
0.022289092 0.059730399 0.87367833
0.023285441 0.022480506 0.82422709
0.023821838 0.025308315 0.8432138
0.024217909 0.028077459 0.85723341
0.024629343 0.030942714 0.87179679
0.024902834 0.033701085 0.88147742
0.025173627 0.036508583 0.89106262
0.025411841 0.039318189 0.89949459
0.025590176 0.042075537 0.90580702
0.025562042 0.044507977 0.9048112
0.025493652 0.046860963 0.90239042
0.025296893 0.048952274 0.8954258
0.025140582 0.051087625 0.88989294
0.024871552 0.052952677 0.8803702
0.024722921 0.055033561 0.87510914
0.024478965 0.056864183 0.86647385
0.024264855 0.058719721 0.85889512
