# .PCD v0.7 - Point Cloud Data file format
VERSION 0.7
FIELDS x y z
SIZE 4 4 4
TYPE F F F
COUNT 1 1 1
WIDTH 256
HEIGHT 1
VIEWPOINT 0 0 0 1 0 0 0
POINTS 256
DATA ascii
-0.015349534 0.061873272 0.83787459
-0.015368501 0.064247884 0.83890986
-0.015387696 0.066629164 0.83995771
-0.01532852 0.068665117 0.8367275
-0.015330958 0.070968583 0.8368606
-0.015301108 0.073118493 0.83523118
-0.015315646 0.075478218 0.83602476
-0.015269289 0.077533081 0.83349425
-0.015290395 0.079926744 0.8346464
-0.015266031 0.082082219 0.83331645
-0.015260996 0.084337234 0.83304161
-0.015189074 0.0862111 0.82911563
-0.015179423 0.088426203 0.82858878
-0.015151904 0.09053167 0.82708669
-0.015129842 0.092662327 0.82588238
-0.015093436 0.094696388 0.8238951
-0.013052407 0.06186473 0.8377589
-0.013057441 0.064184479 0.83808202
-0.013076051 0.066575125 0.83927649
-0.013016773 0.068562068 0.83547181
-0.013015321 0.070842899 0.83537859
-0.012996311 0.073024586 0.83415848
-0.013039482 0.075559884 0.83692932
-0.01303712 0.077838518 0.83677775
-0.013096491 0.08049576 0.84058845
-0.013112387 0.082899012 0.8416087
-0.013063677 0.084888048 0.83848226
-0.012971738 0.086571455 0.83258128
-0.012909401 0.088425286 0.8285802
-0.012851633 0.090289302 0.82487243
-0.012831382 0.092403173 0.82357258
-0.012812018 0.094516471 0.82232976
-0.010764623 0.061906282 0.83832157
-0.010757325 0.064159304 0.83775324
-0.010776033 0.066569865 0.83921015
-0.010728699 0.068566345 0.8355239
-0.010746908 0.07097549 0.83694202
-0.010758503 0.073347308 0.83784497
-0.010829441 0.07614132 0.84336948
-0.010858062 0.078659028 0.84559834
-0.011032281 0.08227478 0.85916609
-0.011184936 0.085799448 0.87105453
-0.011058393 0.087187953 0.86119962
-0.01081687 0.087591417 0.84239048
-0.010720245 0.089096054 0.83486551
-0.010648225 0.090769216 0.82925683
-0.010615081 0.092751324 0.82667559
-0.010564692 0.094564937 0.82275146
-0.0084641417 0.061877541 0.83793241
-0.008450049 0.064066179 0.8365373
-0.0084666442 0.066488162 0.83818018
-0.0084591713 0.068723612 0.83744031
-0.0084953671 0.071321622 0.84102362
-0.0085640848 0.074221127 0.8478266
-0.0089547448 0.080035336 0.88650107
-0.0095138848 0.087612964 0.94185477
nan nan nan
nan nan nan
nan nan nan
-0.0088987304 0.091601424 0.88095582
-0.008656892 0.091459751 0.8570143
-0.0085456995 0.092602611 0.84600651
-0.0084993038 0.094404876 0.84141338
-0.0084153898 0.095755078 0.8331061
-0.0061771846 0.061963078 0.8390907
-0.0061593591 0.06407629 0.83666933
-0.0061789812 0.066579744 0.83933473
-0.0062056826 0.069176726 0.84296179
-0.006378171 0.073472954 0.86639208
nan nan nan
nan nan nan
-0.0075763706 0.095733508 1.029152
-0.0076470142 0.099471763 1.038748
-0.0076288758 0.10207468 1.0362842
-0.0075113545 0.10329736 1.0203204
nan nan nan
nan nan nan
-0.0068991557 0.10258026 0.93716115
-0.006766561 0.10312675 0.91914988
-0.0065747038 0.1026493 0.89308852
-0.003878939 0.061969645 0.83917964
-0.003877325 0.064241804 0.83883047
-0.0039083282 0.067071795 0.84553778
nan nan nan
nan nan nan
-0.0047306945 0.08959575 1.0234506
-0.0048246467 0.094234519 1.0437765
-0.0048163077 0.096926078 1.0419724
-0.0047912509 0.099261425 1.0365516
-0.00476383 0.10151668 1.0306193
-0.0047392473 0.10380159 1.025301
-0.0046938322 0.10558875 1.0154757
-0.0046451706 0.10724711 1.0049481
-0.0045717303 0.10826102 0.98905993
-0.0045035863 0.10931644 0.97431743
-0.004366626 0.1085799 0.94468707
-0.0015879335 0.062279303 0.84337294
-0.0015947601 0.064867362 0.84699863
-0.001670032 0.07035891 0.8869766
nan nan nan
-0.0019076727 0.085921973 1.0131907
-0.0019441689 0.090394475 1.0325744
-0.0019587129 0.093920559 1.0402989
-0.0019533655 0.096506216 1.0374588
-0.0019396638 0.098651432 1.0301816
-0.001922923 0.10059778 1.0212904
-0.0019180459 0.10313332 1.0187001
-0.0018984599 0.10484238 1.0082977
-0.0018781319 0.10645238 0.99750119
-0.0018488445 0.10748237 0.98194629
-0.0018264501 0.1088379 0.9700523
-0.0017939628 0.10951214 0.95279789
0.00072993134 0.062923841 0.85210115
0.00075308769 0.067328386 0.87913316
0.00080598792 0.074635349 0.94088739
0.00085535483 0.081942186 0.99851692
0.00086866372 0.085995123 1.0140533
0.0008768164 0.089606248 1.0235705
0.00088141742 0.092895195 1.0289416
0.00088301022 0.095886901 1.0308011
0.00087620452 0.097949944 1.0228562
0.00086951995 0.099983387 1.0150529
0.00086438592 0.10215731 1.0090595
0.00085650507 0.103965 0.99985969
0.00084825879 0.10567675 0.99023324
0.00083823834 0.10710905 0.97853565
0.00082845695 0.10850858 0.96711713
0.00081528007 0.10938995 0.95173478
0.003154896 0.064785667 0.87731355
0.0033153894 0.070607014 0.92194355
0.0035059231 0.077335536 0.97492719
0.0035916583 0.081962824 0.99876839
0.0036230872 0.085440069 1.0075082
0.0036327729 0.088435888 1.0102016
0.0036446673 0.091501914 1.0135092
0.0036470576 0.094340213 1.0141739
0.0036338803 0.096767604 1.0105095
0.0036086517 0.098844811 1.0034939
0.0035896827 0.10105982 0.99821907
0.0035619617 0.10299286 0.9905104
0.0035342099 0.10488275 0.98279315
0.0034958411 0.1064072 0.97212356
0.0034550142 0.1077965 0.96077043
0.0034041004 0.10880119 0.9466123
0.0056522428 0.065881066 0.89214724
0.0059757247 0.072235361 0.94320548
0.0061582811 0.077104941 0.97202015
0.0062351762 0.080763772 0.9841572
0.006281761 0.084083378 0.99151009
0.0062952014 0.086985305 0.99363154
0.0063270335 0.090160929 0.99865592
0.0063332361 0.092987776 0.99963492
0.0063202363 0.09552975 0.99758303
0.0062789572 0.097620815 0.99106759
0.0062366547 0.099659815 0.98439056
0.0062048971 0.10183532 0.97937799
0.0061785332 0.1040742 0.97521669
0.0061192601 0.10572171 0.96586108
0.0060415147 0.10699084 0.95358974
0.0059486711 0.10791882 0.9389354
0.0080594607 0.065581731 0.88809377
0.0084637776 0.071426705 0.93264657
0.0086426316 0.075545013 0.95235497
0.0087260036 0.078907877 0.96154195
0.0088083372 0.082311362 0.97061449
0.0088810576 0.085671827 0.97862774
0.0089341803 0.088881232 0.98448151
0.0089155035 0.091386735 0.98242342
0.0089057079 0.09397468 0.98134398
0.0088759847 0.096340418 0.97806871
0.0088431397 0.098653384 0.97444952
0.0087929629 0.10074794 0.96892035
0.0087542534 0.10294704 0.9646548
0.0086682411 0.10455224 0.95517695
0.0085707689 0.10596383 0.94443619
0.0084396508 0.10689043 0.92998797
0.010457034 0.065360934 0.8851037
0.010847314 0.070315547 0.91813779
0.011031911 0.074070171 0.93376243
0.011118363 0.077228673 0.94107985
0.01128235 0.08098381 0.95496005
0.011402185 0.084487848 0.96510315
0.011461055 0.087581567 0.97008598
0.011426324 0.089965627 0.96714628
0.011416763 0.092537597 0.96633703
0.011419567 0.09520822 0.96657443
0.011394843 0.097644247 0.96448171
0.01131501 0.099583797 0.95772445
0.011237153 0.10150416 0.95113444
0.011137716 0.10318851 0.94271803
0.011037793 0.10482211 0.93426031
0.010895868 0.10600076 0.92224747
0.012742017 0.064651981 0.87550324
0.013181889 0.069365054 0.90572679
0.013369438 0.072868466 0.91861326
0.013515171 0.076206706 0.92862654
0.013682776 0.079727247 0.94014269
0.013809112 0.083062656 0.94882321
0.013871753 0.086050496 0.95312726
0.013855441 0.088557296 0.95200652
0.013886661 0.091370709 0.95415163
0.013887865 0.093992718 0.95423436
0.013898661 0.0966819 0.95497614
0.013790524 0.09852545 0.94754606
0.013662031 0.10017902 0.93871731
0.013528679 0.10174768 0.92955476
0.01344625 0.1036587 0.92389101
0.013323109 0.10521717 0.91543001
0.014970081 0.063924581 0.86565298
0.015374628 0.06808757 0.88904613
0.015700875 0.072019555 0.90791148
0.015869107 0.075305082 0.91763967
0.016036475 0.078639656 0.9273178
0.016151775 0.081763685 0.93398505
0.016209859 0.084625535 0.93734384
0.016212218 0.087206028 0.93748015
0.016254164 0.090006508 0.93990582
0.016239092 0.092495494 0.93903422
0.016241904 0.095084399 0.93919683
0.016140444 0.097047254 0.93332988
0.015998136 0.098725885 0.92510086
0.015867971 0.10043628 0.91757399
0.015782479 0.10239527 0.91263032
0.01567605 0.10418802 0.90647596
0.017226063 0.063499041 0.8598904
0.017547745 0.067084454 0.87594813
0.01791578 0.070941389 0.89431965
0.018109294 0.074184075 0.90397948
0.018268527 0.07733456 0.91192812
0.018401343 0.080413163 0.91855806
0.018506154 0.083401859 0.92378998
0.018526331 0.086026236 0.92479712
0.018597972 0.088902146 0.92837334
0.018543081 0.091175497 0.92563331
0.018556722 0.09378016 0.92631418
0.018448042 0.09575367 0.92088914
0.01829811 0.097477689 0.91340482
0.018135717 0.099092625 0.90529853
0.018038511 0.10102824 0.90044624
0.017931985 0.10288379 0.89512861
0.019373355 0.06282343 0.85074139
0.019716872 0.066309266 0.86582619
0.020065835 0.069896728 0.88115013
0.020310439 0.073192082 0.89189148
0.020433782 0.076094709 0.89730781
0.020528587 0.07891731 0.90147096
0.020666376 0.081933118 0.90752167
0.020711828 0.084604912 0.90951765
0.020820338 0.087552801 0.91428262
0.020784847 0.089903928 0.91272414
0.020783484 0.092398234 0.91266423
0.020701405 0.094523668 0.90905988
0.020584662 0.096466906 0.90393335
0.020383412 0.097975865 0.89509594
0.020250015 0.09977071 0.88923806
0.02008779 0.10138795 0.88211423
