# .PCD v0.7 - Point Cloud Data file format
VERSION 0.7
FIELDS x y z
SIZE 4 4 4
TYPE F F F
COUNT 1 1 1
WIDTH 225
HEIGHT 1
VIEWPOINT 0 0 0 1 0 0 0
POINTS 225
DATA ascii
0.066329561 -0.015258958 0.61589831
0.067577533 -0.013827077 0.62748629
0.069986366 -0.012539701 0.64985329
nan nan nan
nan nan nan
0.087739863 -0.0090251202 0.81470209
0.088138707 -0.0068241553 0.81840551
0.087492406 -0.0045485646 0.81240433
nan nan nan
0.077852622 -8.6724613e-05 0.72289485
0.07153368 0.001739922 0.66422075
0.068513401 0.0034092397 0.63617617
0.067083545 0.0050444985 0.62289935
0.066676348 0.00670993 0.61911839
0.066739038 0.0084138839 0.61970043
0.069703415 -0.015637336 0.63117081
nan nan nan
nan nan nan
0.089534193 -0.013423217 0.81074035
0.091521621 -0.011450885 0.82873666
0.092327252 -0.009261406 0.83603173
0.09217906 -0.0069599398 0.83468986
0.091918029 -0.0046601049 0.83232617
0.090438835 -0.0023416788 0.81893194
nan nan nan
0.080525242 0.001910039 0.72916347
0.073726453 0.0035776375 0.6675998
0.070108563 0.0051411949 0.63483948
0.068923861 0.0067640492 0.62411189
0.068387099 0.0084077884 0.61925143
nan nan nan
nan nan nan
0.09237919 -0.015750604 0.81625402
0.094300047 -0.013795515 0.8332265
0.094641708 -0.011554635 0.83624542
0.095032364 -0.0093020117 0.83969718
0.094834782 -0.0069871354 0.83795136
0.094891734 -0.0046944171 0.8384546
0.09418717 -0.0023797012 0.83222914
0.092984453 -9.8566365e-05 0.82160205
nan nan nan
nan nan nan
0.076289654 0.0054590488 0.67408836
0.072318316 0.0069253827 0.63899797
0.070554413 0.0084642805 0.62341225
nan nan nan
0.095110826 -0.018080901 0.82052904
0.096197784 -0.016014041 0.82990634
0.097093567 -0.013868494 0.83763433
0.09707658 -0.011571801 0.83748776
0.097396828 -0.0093081426 0.84025061
0.097262703 -0.0069966591 0.83909351
0.097493134 -0.0047091246 0.84108144
0.097067088 -0.0023945039 0.83740592
0.096634597 -0.00010001471 0.83367473
0.094559871 0.0021369199 0.81577593
nan nan nan
0.084937192 0.0059341979 0.73276025
0.078515649 0.0073411572 0.67736107
0.073945172 0.0086614089 0.63793117
0.097300231 -0.020316515 0.82003683
0.098900869 -0.018367318 0.83352685
0.098867565 -0.016078487 0.83324617
0.099332988 -0.013860784 0.83716869
0.099252619 -0.011558034 0.83649135
0.099619515 -0.0093007525 0.83958352
0.099650182 -0.0070028999 0.83984196
0.099912882 -0.0047145807 0.84205598
0.099620044 -0.0024007433 0.83958799
0.099369921 -0.00010047121 0.83747995
0.098109379 0.0021659445 0.82685626
0.095875442 0.0043301904 0.80802882
0.091098286 0.0062177009 0.76776743
0.085686706 0.0078266738 0.72215915
0.079512082 0.0090984488 0.67012006
0.10076199 -0.020564547 0.83004814
0.10166143 -0.01845393 0.83745742
0.10131463 -0.016104624 0.83460063
0.10163967 -0.013862597 0.83727819
0.10160908 -0.011565424 0.83702624
0.10193774 -0.009302415 0.8397336
0.10201972 -0.0070076277 0.84040892
0.10231731 -0.0047190846 0.8428604
0.10208828 -0.0024047059 0.84097373
0.10194642 -0.00010075016 0.83980513
0.1010796 0.0021811593 0.83266449
0.099707291 0.0044016307 0.82135981
0.095372528 0.0063625313 0.78565127
0.090697058 0.0080973711 0.74713612
0.085350469 0.0095461262 0.70309246
0.10289572 -0.020536574 0.82891905
0.10402679 -0.018466568 0.83803087
0.10375939 -0.016129246 0.8358767
0.10401125 -0.013872987 0.8379057
0.10389473 -0.011564605 0.83696699
0.10422587 -0.0093013179 0.8396346
0.10435036 -0.0070095337 0.84063751
0.10465491 -0.0047203754 0.84309095
0.10438687 -0.0024045852 0.84093159
0.10434379 -0.00010084367 0.84058464
0.10384066 0.0021912886 0.8365314
0.10306431 0.0044494183 0.83027714
0.098906413 0.0064526689 0.79678154
0.094026737 0.0082093822 0.75747132
0.089406498 0.0097790938 0.72025102
0.10357374 -0.020225542 0.81636488
0.10585295 -0.018385006 0.83432955
0.10601994 -0.016124789 0.83564574
0.10633574 -0.013876782 0.83813494
0.10619588 -0.011565511 0.83703256
0.10649038 -0.0092982072 0.83935374
0.1064814 -0.0069982386 0.83928293
0.10687491 -0.0047164205 0.84238458
0.10667934 -0.0024043322 0.84084308
0.1068406 -0.00010102718 0.84211421
0.10637721 0.0021963452 0.83846176
0.10570873 0.0044650431 0.83319283
0.10185036 0.0065012574 0.80278128
0.096951947 0.0082820049 0.76417214
0.092648521 0.0099148899 0.73025268
nan nan nan
0.10660844 -0.018124864 0.82252401
0.10828093 -0.016120587 0.83542788
0.10877872 -0.013895552 0.83926857
0.10862502 -0.011580021 0.83808267
0.10877271 -0.0092967488 0.83922213
0.1087338 -0.0069952281 0.8389219
0.10899248 -0.0047082081 0.84091777
0.1088773 -0.0024020048 0.84002912
0.1090677 -0.00010095327 0.84149814
0.1087227 0.0021973264 0.83883631
0.10797019 0.0044641728 0.8330304
0.10427514 0.0065153521 0.80452168
0.099368416 0.0083090169 0.76666451
0.095557474 0.010010053 0.73726165
nan nan nan
nan nan nan
0.10982572 -0.01601214 0.82980776
0.11117125 -0.013907233 0.83997416
0.11105806 -0.011594339 0.8391189
0.11108612 -0.009297953 0.83933085
0.11093992 -0.0069894278 0.83822626
0.11112935 -0.0047011524 0.83965755
0.11104567 -0.0023991342 0.83902526
0.11131725 -0.00010090277 0.84107721
0.11096167 0.0021961587 0.83839059
0.11001541 0.0044545829 0.83124095
0.1064259 0.0065120971 0.80411977
0.10171584 0.0083292583 0.7685321
0.098611832 0.010116194 0.74507922
0.090101659 -0.016524358 0.66697377
0.10087439 -0.016454436 0.74671841
0.10990088 -0.015698168 0.8135367
0.11337329 -0.013895096 0.83924109
0.11362475 -0.011621746 0.84110248
0.1135068 -0.009307906 0.84022933
0.11322001 -0.0069884276 0.83810633
0.11336584 -0.0046985117 0.83918589
0.11320587 -0.0023962075 0.83800167
0.11342969 -0.00010073257 0.8396585
0.11302824 0.0021916956 0.83668679
0.11211316 0.0044474667 0.82991296
0.10868847 0.0065156776 0.80456185
0.10436124 0.0083725834 0.77252972
0.10212689 0.010264334 0.75599003
0.089187615 -0.016031625 0.64708549
0.094561219 -0.015118069 0.68607277
nan nan nan
0.11381801 -0.013672343 0.82578713
0.11561179 -0.011589955 0.83880162
0.11578941 -0.0093063666 0.84009033
0.11537223 -0.0069797328 0.83706355
0.11564099 -0.0046975459 0.83901346
0.11547247 -0.0023956045 0.83779079
0.11580743 -0.00010080006 0.84022105
0.11505942 0.0021867375 0.83479398
0.11410977 0.0044367001 0.82790393
0.11086466 0.0065140394 0.80435961
0.10748003 0.0084514106 0.77980298
0.10646684 0.010487844 0.772452
0.089717761 -0.015812632 0.6382463
0.092478216 -0.01449691 0.657884
nan nan nan
nan nan nan
0.11655183 -0.011456488 0.82914215
0.11789231 -0.0092907241 0.83867824
0.11755773 -0.0069733495 0.83629805
0.11793879 -0.0046975203 0.83900887
0.11784559 -0.0023971915 0.83834583
0.11803652 -0.00010073805 0.83970416
0.11678883 0.0021763488 0.83082813
0.11553133 0.0044044307 0.82188231
0.11275133 0.0064957854 0.80210561
0.1104177 0.008513201 0.78550434
0.10931826 0.010558868 0.77768302
0.090398192 -0.015627993 0.63079375
0.092370234 -0.014203188 0.64455456
0.095318742 -0.012834465 0.66512907
0.10558897 -0.012198909 0.73679417
nan nan nan
0.11948862 -0.0092365192 0.83378518
0.11992425 -0.0069777435 0.83682501
0.12022202 -0.0046969266 0.83890283
0.12003564 -0.0023950653 0.83760226
0.11991001 -0.00010038071 0.83672559
0.11833574 0.0021630218 0.82574046
0.11671048 0.0043643303 0.81439942
0.1141049 0.0064481045 0.79621792
0.11157223 0.0084377769 0.77854502
nan nan nan
0.091269456 -0.015482653 0.62492734
0.093086511 -0.014044845 0.6373688
0.094246611 -0.012452072 0.64531207
0.098849192 -0.011206036 0.67682624
nan nan nan
0.11938033 -0.0090550529 0.81740409
0.12160869 -0.0069430294 0.83266181
0.12233744 -0.0046899212 0.83765161
0.12189364 -0.0023865176 0.83461291
0.12134612 -9.9677498e-05 0.83086395
0.11938713 0.0021413069 0.8174507
0.11723498 0.0043017128 0.80271482
nan nan nan
nan nan nan
0.10010005 0.0093057863 0.68539089
