# .PCD v0.7 - Point Cloud Data file format
VERSION 0.7
FIELDS x y z
SIZE 4 4 4
TYPE F F F
COUNT 1 1 1
WIDTH 144
HEIGHT 1
VIEWPOINT 0 0 0 1 0 0 0
POINTS 144
DATA ascii
0.15439503 0.083175495 0.77938753
0.15472774 0.085494444 0.78106713
0.15582097 0.088253319 0.78658569
0.1576084 0.09144523 0.79560876
0.16222262 0.096365765 0.81890136
0.17092787 0.10390071 0.86284548
0.17562596 0.10918521 0.88656151
0.17024304 0.10819295 0.85938847
0.16036502 0.10413292 0.80952412
0.15630493 0.10365803 0.78902876
0.15486276 0.10484319 0.78174871
0.1538327 0.10627315 0.77654892
0.15680385 0.083320946 0.78075045
0.15836842 0.086312488 0.78854072
0.1618661 0.090426654 0.80595618
nan nan nan
0.17924653 0.10502616 0.89249605
nan nan nan
0.19145614 0.11740315 0.95328951
nan nan nan
nan nan nan
0.16695018 0.10920752 0.83127058
0.16059856 0.10724331 0.79964495
0.15785152 0.10756204 0.78596693
0.16080792 0.084298745 0.78991282
0.16479036 0.088603936 0.80947512
0.17306958 0.095384426 0.85014391
0.18345863 0.10357892 0.90117651
nan nan nan
0.1977606 0.11697605 0.97142994
0.19962531 0.12076532 0.98058969
0.19897927 0.12305208 0.97741622
0.19646277 0.12413956 0.96505475
nan nan nan
nan nan nan
0.16645691 0.11189953 0.81766146
0.16955267 0.087702721 0.82180947
0.17648116 0.093629859 0.85539132
0.18489896 0.1005509 0.89619178
0.19241475 0.10719298 0.93262029
0.19891381 0.11345474 0.96412081
0.20224617 0.11804084 0.98027253
0.2039611 0.12174995 0.98858464
0.20362112 0.12425067 0.98693675
0.20385602 0.12710081 0.98807532
0.20194334 0.12858969 0.97880471
0.19920819 0.12949313 0.96554762
nan nan nan
0.18039133 0.092086397 0.86288625
0.18582006 0.097292647 0.88885415
0.19114283 0.10258431 0.91431516
0.19670214 0.10814551 0.94090766
0.20226061 0.11385193 0.9674961
0.20553975 0.11839115 0.9831816
0.20691206 0.12189296 0.98974586
0.20687775 0.12458368 0.98958182
0.20747447 0.12766176 0.99243617
0.20706506 0.13012324 0.9904778
0.20623904 0.13230671 0.98652661
0.20226239 0.13240604 0.96750462
0.18625514 0.093849964 0.87941158
0.18974037 0.098060288 0.89586723
0.19405235 0.10279875 0.91622645
0.19858386 0.10776787 0.93762207
0.20458569 0.11367117 0.96595997
0.20803577 0.11827893 0.98224968
0.20997134 0.12209527 0.99138856
0.20971844 0.12466081 0.9901945
0.2102412 0.12769091 0.99266273
0.2098884 0.13019145 0.99099696
0.21015973 0.13307805 0.9922781
0.20797795 0.13438658 0.98197669
0.18678512 0.0929152 0.87065244
0.19161731 0.097765766 0.8931765
0.19608621 0.10254975 0.91400719
0.20030668 0.10731477 0.93367988
0.20605549 0.11302589 0.96047652
0.20998913 0.117865 0.97881216
0.21217066 0.12179874 0.98898083
0.21273693 0.12484032 0.99162036
0.21316513 0.12781358 0.99361634
0.21290235 0.13037464 0.99239141
0.21293382 0.13311294 0.99253815
0.21185613 0.13514447 0.98751467
0.18281375 0.089793064 0.84139681
0.19023547 0.095836952 0.8755551
0.19732551 0.10189673 0.90818691
0.20138264 0.10653088 0.9268598
0.20666185 0.11192923 0.95115727
0.2107569 0.11680442 0.97000462
0.21387832 0.121231 0.98437089
0.21487488 0.12450509 0.98895758
0.21569958 0.12770255 0.99275327
0.21530162 0.13018155 0.99092162
0.21532717 0.13291191 0.99103922
0.21475071 0.13526373 0.98838603
0.17872496 0.08669173 0.81233609
0.18604259 0.092557669 0.84559596
0.19679722 0.10035858 0.89447767
0.20202218 0.10553854 0.918226
0.20639738 0.11039411 0.93811208
0.21067387 0.11530461 0.95754939
0.21424577 0.11992721 0.97378433
0.21597102 0.12358207 0.98162591
0.21727368 0.12703282 0.98754674
0.21734838 0.12978278 0.98788625
0.21741036 0.13252683 0.98816794
0.21700551 0.13498205 0.98632783
0.17822623 0.085386634 0.80010682
0.18177624 0.089322932 0.81604379
0.19251773 0.096968807 0.86426526
0.20098712 0.10370652 0.90228671
0.20582186 0.10873241 0.9239912
0.20944946 0.11322467 0.9402765
0.21352911 0.11805609 0.95859122
0.21579316 0.1219617 0.96875513
0.21749987 0.12560114 0.97641701
0.21798064 0.12855956 0.97857535
0.21829182 0.13142768 0.9799723
0.21804659 0.13396162 0.97887141
0.17953932 0.084970742 0.79620969
0.18141523 0.088062532 0.80452889
0.18767375 0.093380548 0.83228374
0.19850042 0.1011791 0.88029718
0.20524038 0.107108 0.91018718
0.20769598 0.11091275 0.92107707
0.21143427 0.11547773 0.93765545
0.2145361 0.11977817 0.95141119
0.21721642 0.12391355 0.96329772
0.21793039 0.12696844 0.96646398
0.2184927 0.12995048 0.96895772
0.21800864 0.13231111 0.966811
0.18110104 0.084681079 0.79349548
0.18200417 0.08728797 0.79745257
0.18549 0.091186188 0.81272578
0.19475673 0.098079331 0.85332805
0.20387499 0.10511838 0.89327973
0.20664673 0.10902788 0.90542412
0.20905423 0.11280736 0.91597259
0.21198614 0.1169339 0.92881876
0.21484014 0.12108692 0.94132364
0.21672957 0.12475323 0.94960213
0.21778229 0.12797323 0.95421463
0.21540774 0.12916343 0.94381058
