# .PCD v0.7 - Point Cloud Data file format
VERSION 0.7
FIELDS x y z
SIZE 4 4 4
TYPE F F F
COUNT 1 1 1
WIDTH 1225
HEIGHT 1
VIEWPOINT 0 0 0 1 0 0 0
POINTS 1225
DATA ascii
-0.028365996 -0.0068052462 0.81613779
-0.028507149 -0.0045922059 0.82019901
-0.028270829 -0.0023258599 0.81339967
-0.028248094 -9.7503864e-05 0.81274557
-0.028109154 0.0021185102 0.80874801
-0.028201001 0.0043482059 0.81139058
-0.028093599 0.0065459539 0.80830044
-0.028206002 0.0087953126 0.81153446
-0.028129917 0.010988758 0.80934536
-0.028112791 0.01319789 0.80885267
-0.028069464 0.015389956 0.8076061
-0.028031694 0.017578674 0.80651933
-0.028071057 0.01981589 0.80765188
-0.027996927 0.021970252 0.80551904
-0.028065136 0.024235841 0.80748153
-0.028047573 0.026431356 0.8069762
-0.028073883 0.028668901 0.80773318
-0.027955839 0.030751809 0.80433691
-0.027980959 0.032984871 0.80505961
-0.027875146 0.035057224 0.80201519
-0.027970562 0.037381835 0.80476046
-0.027926046 0.039523441 0.80347967
-0.027838742 0.041594107 0.80096781
-0.02759156 0.043399524 0.79385597
-0.027515354 0.045448389 0.79166335
-0.027468098 0.047535345 0.79030377
-0.027441224 0.049651723 0.78953052
-0.027407514 0.051750962 0.78856063
-0.027530294 0.054152705 0.79209322
-0.027463699 0.056186367 0.79017717
-0.027518006 0.05846642 0.7917397
-0.02725894 0.06006451 0.7842859
-0.027265007 0.062226877 0.78446048
-0.027065152 0.063903995 0.77871031
-0.027118271 0.066166848 0.78023863
-0.026124597 -0.0068037827 0.81596226
-0.026234105 -0.0045876349 0.81938261
-0.026032122 -0.0023249283 0.81307393
-0.026038243 -9.756619e-05 0.81326509
-0.025879471 0.0021173526 0.8083061
-0.025941527 0.0043420633 0.81024432
-0.02583584 0.0065349638 0.80694336
-0.02590563 0.0087691788 0.80912316
-0.025854068 0.010963876 0.8075127
-0.025811747 0.013154457 0.80619085
-0.025810407 0.015362188 0.80614901
-0.025774056 0.017545858 0.80501366
-0.025794793 0.019767052 0.80566132
-0.025705878 0.021898387 0.80288422
-0.025757805 0.024146536 0.80450606
-0.025733596 0.026325684 0.80374992
-0.025783027 0.028582323 0.80529386
-0.02571553 0.030707795 0.8031857
-0.025718518 0.032911915 0.80327898
-0.025611611 0.034966514 0.79993993
-0.025686571 0.037266672 0.8022812
-0.025695981 0.039478946 0.80257511
-0.025545079 0.041432817 0.79786193
-0.025321594 0.043236922 0.79088169
-0.025281304 0.045331273 0.78962332
-0.025290165 0.047511064 0.78990006
-0.025318651 0.049730912 0.79078972
-0.025248112 0.051752668 0.78858662
-0.025320357 0.054067232 0.79084301
-0.025213001 0.055995293 0.78748995
-0.025263948 0.058270101 0.78908122
-0.025022736 0.059854772 0.78154731
-0.025024768 0.062000826 0.78161079
-0.024920026 0.063873552 0.77833933
-0.025021121 0.066273555 0.78149688
-0.02386927 -0.0067980778 0.81527811
-0.023930946 -0.0045764493 0.81738472
-0.023807198 -0.0023251686 0.81315798
-0.023831965 -9.7654833e-05 0.81400394
-0.023682814 0.0021189332 0.80890954
-0.023690756 0.0043363636 0.8091808
-0.023568004 0.006519129 0.80498809
-0.023592023 0.0087332549 0.80580848
-0.023561602 0.010926629 0.80476946
-0.023561211 0.013131047 0.8047561
-0.02359012 0.01535446 0.80574346
-0.023569604 0.017546492 0.80504274
-0.023609644 0.019785428 0.80641031
-0.023531392 0.021921663 0.80373758
-0.023545925 0.024138369 0.80423397
-0.023470273 0.026256904 0.80164999
-0.023509512 0.028500559 0.8029902
-0.023459209 0.030634634 0.80127209
-0.023507413 0.032897145 0.80291849
-0.023418654 0.034964196 0.79988688
-0.023479212 0.037251532 0.80195528
-0.023492483 0.039470758 0.80240864
-0.023357473 0.041429456 0.7977972
-0.023161467 0.043248989 0.79110241
-0.023136623 0.045367472 0.79025388
-0.023153622 0.047567263 0.79083443
-0.023205733 0.049845655 0.79261434
-0.023118019 0.051820382 0.78961843
-0.023113204 0.053972263 0.78945392
-0.022998938 0.055857424 0.78555107
-0.022998407 0.058008078 0.78553295
-0.022868803 0.059820987 0.78110617
-0.02289499 0.062031746 0.7820006
-0.022818165 0.063958682 0.77937663
-0.02286189 0.066220395 0.78087008
-0.021592528 -0.006784467 0.81364578
-0.02163218 -0.0045638811 0.81513995
-0.021565242 -0.0023236235 0.8126176
-0.021621125 -9.774114e-05 0.81472337
-0.021498561 0.0021220648 0.81010497
-0.02147389 0.0043363343 0.80917531
-0.021368483 0.0065208725 0.80520338
-0.021325782 0.0087092584 0.80359435
-0.021301476 0.010898239 0.80267847
-0.021275803 0.013081362 0.80171108
-0.021338988 0.01532299 0.80409199
-0.02132252 0.017512245 0.80347145
-0.021349663 0.019738419 0.80449426
-0.021290423 0.021881415 0.80226195
-0.021288715 0.024077248 0.80219758
-0.021208985 0.026176436 0.7991932
-0.021217749 0.028377514 0.79952347
-0.021209346 0.030555675 0.79920685
-0.021271128 0.032840457 0.80153489
-0.021224419 0.034959298 0.79977483
-0.021265827 0.037222724 0.80133516
-0.021288468 0.039459918 0.80218828
-0.021186223 0.041457415 0.79833555
-0.02098581 0.043231562 0.79078358
-0.020953273 0.045327496 0.78955752
-0.020985292 0.047563031 0.79076409
-0.02105771 0.049900908 0.79349291
-0.020948771 0.051805254 0.78938788
-0.02090366 0.053851537 0.78768802
-0.020825088 0.055798847 0.78472728
-0.020863587 0.05805571 0.78617799
-0.02076944 0.059937716 0.78263032
-0.020751145 0.062027015 0.78194094
-0.02068126 0.063953012 0.7793076
-0.020703349 0.066158481 0.78013998
-0.019333387 -0.0067738895 0.81237727
-0.019400341 -0.0045641651 0.81519067
-0.019336874 -0.0023233553 0.81252378
-0.019388229 -9.7736141e-05 0.81468171
-0.019274093 0.0021214904 0.80988574
-0.019272529 0.0043397895 0.80982006
-0.019166501 0.0065221805 0.80536485
-0.019116517 0.0087056831 0.8032645
-0.019049523 0.010867976 0.80044949
-0.019024875 0.013043878 0.7994138
-0.019047853 0.015252239 0.80037928
-0.019056451 0.017452722 0.80074054
-0.019107802 0.019699262 0.80289835
-0.019074589 0.021860708 0.8015027
-0.019083036 0.024067048 0.80185771
-0.019017117 0.026172983 0.79908782
-0.019004667 0.028343484 0.79856467
-0.019000914 0.030525092 0.79840696
-0.01906487 0.032822408 0.80109435
-0.019037925 0.034967482 0.7999621
-0.019013183 0.037110656 0.79892248
-0.019016802 0.039306752 0.79907453
-0.019005368 0.041470837 0.79859406
-0.018853357 0.043309361 0.7922067
-0.018812923 0.045382041 0.79050767
-0.01878076 0.047466319 0.7891562
-0.018843221 0.049793236 0.79178077
-0.018769883 0.051760055 0.78869915
-0.018762521 0.053899515 0.7883898
-0.018725732 0.055949356 0.78684396
-0.018766772 0.058232237 0.78856844
-0.018695371 0.060162716 0.78556824
-0.018616805 0.062052872 0.78226691
-0.018515889 0.063847877 0.77802646
-0.018522007 0.066001058 0.7782836
-0.017130798 -0.0067829527 0.81346416
-0.017179165 -0.0045673577 0.81576091
-0.017087314 -0.0023201397 0.81139928
-0.017118981 -9.7522759e-05 0.81290305
-0.017042248 0.0021198494 0.8092593
-0.017077958 0.0043458715 0.81095499
-0.016966624 0.0065246373 0.80566823
-0.016896963 0.0086958846 0.80236036
-0.016822454 0.010845882 0.79882222
-0.016819919 0.013032261 0.79870188
-0.016868023 0.015263803 0.80098611
-0.016872801 0.017463021 0.80121303
-0.016877616 0.019663522 0.80144167
-0.016816547 0.021779949 0.79854178
-0.016836602 0.023996107 0.79949415
-0.016819216 0.026159251 0.79866856
-0.016817255 0.028343864 0.7985754
-0.016797923 0.030496433 0.79765737
-0.01682372 0.032731775 0.79888237
-0.016820855 0.034914345 0.79874641
-0.01679942 0.037055191 0.79772848
-0.016801687 0.039245836 0.79783618
-0.016799068 0.04142502 0.79771179
-0.016688118 0.043322295 0.79244328
-0.016644312 0.045373745 0.79036313
-0.016604535 0.047425304 0.78847426
-0.016672667 0.049788754 0.79170954
-0.016619839 0.05179299 0.78920102
-0.016629096 0.053985022 0.78964055
-0.016574223 0.055962935 0.78703493
-0.016615195 0.058262661 0.78898048
-0.016524198 0.060093112 0.78465939
-0.01645951 0.061998989 0.78158766
-0.016378343 0.063823834 0.77773345
-0.016366486 0.065906651 0.77717036
-0.014865847 -0.0067663402 0.81147188
-0.01493024 -0.0045630238 0.81498682
-0.014857966 -0.0023191173 0.81104171
-0.014880504 -9.7447039e-05 0.81227189
-0.014801672 0.002116469 0.8079688
-0.014823222 0.0043361722 0.80914509
-0.014692493 0.0064950041 0.80200911
-0.014660581 0.0086731985 0.80026716
-0.014623789 0.010838233 0.79825884
-0.014651766 0.01304995 0.79978597
-0.01468845 0.015279092 0.80178839
-0.014690199 0.017477643 0.80188388
-0.014707673 0.019697774 0.80283773
-0.014642599 0.021800237 0.79928559
-0.014662437 0.02402235 0.80036849
-0.014636335 0.026168261 0.79894364
-0.014650021 0.028383451 0.79969072
-0.014612853 0.030496605 0.79766184
-0.014629984 0.032720085 0.79859698
-0.014612049 0.034865018 0.79761797
-0.014593708 0.037003554 0.79661679
-0.014585122 0.039162803 0.79614812
-0.014598003 0.041380331 0.79685122
-0.01449419 0.043253478 0.79118448
-0.014458115 0.045307849 0.78921527
-0.014406925 0.047301803 0.786421
-0.014479239 0.04970441 0.79036832
-0.014468246 0.051830217 0.78976828
-0.014503564 0.054125555 0.79169613
-0.014400707 0.055895146 0.78608155
-0.014372705 0.057935722 0.78455311
-0.01428759 0.059729144 0.77990693
-0.014273281 0.06180371 0.77912587
-0.014209824 0.063653834 0.77566195
-0.014230067 0.065872438 0.77676696
-0.012632431 -0.0067607639 0.81080312
-0.012669762 -0.0045530144 0.8131991
-0.012611363 -0.0023145685 0.80945086
-0.012639659 -9.7326483e-05 0.81126702
-0.012584915 0.0021159046 0.80775332
-0.012594907 0.0043321508 0.80839461
-0.012477545 0.0064857132 0.80086184
-0.012448409 0.0086593758 0.79899174
-0.012440422 0.010841223 0.79847914
-0.012482644 0.013072846 0.80118912
-0.012524031 0.015318293 0.80384552
-0.012514773 0.017507445 0.80325127
-0.012517869 0.019712798 0.80345005
-0.012467152 0.021825032 0.80019474
-0.012485466 0.024052417 0.80137026
-0.012469101 0.026213337 0.80031985
-0.012493185 0.028460648 0.8018657
-0.012456899 0.030568283 0.79953665
-0.012448352 0.032736108 0.7989881
-0.012420948 0.034848023 0.79722917
-0.012419834 0.037028678 0.7971577
-0.01237714 0.039077669 0.79441744
-0.012362255 0.041204333 0.79346204
-0.012290685 0.043126859 0.78886843
-0.012291902 0.045292415 0.78894645
-0.012256364 0.047316514 0.78666556
-0.012299719 0.049646549 0.78944826
-0.012308595 0.051846601 0.7900179
-0.012349349 0.054189656 0.79263371
-0.012249122 0.055903617 0.7862007
-0.012206456 0.057855159 0.78346217
-0.0121403 0.059676234 0.77921605
-0.012158629 0.061904177 0.78039241
-0.012108156 0.063776188 0.77715284
-0.012099967 0.065860599 0.7766273
-0.01039538 -0.0067504472 0.80956584
-0.010421868 -0.0045442218 0.8116287
-0.010382649 -0.0023120621 0.80857438
-0.010417162 -9.7325901e-05 0.81126213
-0.010349754 0.0021113451 0.80601269
-0.010343889 0.0043169381 0.80555588
-0.010273727 0.006479477 0.8000918
-0.010279738 0.0086763725 0.80056
-0.010295289 0.010885919 0.80177104
-0.010309841 0.013100832 0.80290431
-0.010298545 0.015283593 0.8020246
-0.010283457 0.017455099 0.80084962
-0.01030601 0.019692089 0.80260599
-0.01030469 0.021887993 0.80250317
-0.010314785 0.024110017 0.80328935
-0.010283138 0.026229873 0.8008247
-0.010296504 0.028460644 0.80186564
-0.010270712 0.030580532 0.79985702
-0.010275682 0.032787569 0.80024403
-0.010227552 0.034815967 0.79649585
-0.010207861 0.036926702 0.79496235
-0.010162124 0.038929269 0.79140055
-0.010172055 0.041137442 0.79217392
-0.010139058 0.043167084 0.78960419
-0.010143926 0.045351941 0.78998333
-0.01011283 0.047370404 0.78756154
-0.010138337 0.049652819 0.78954798
-0.010140678 0.051827725 0.78973031
-0.010173549 0.054166175 0.79229027
-0.010093058 0.055890899 0.78602183
-0.010065713 0.057886921 0.78389227
-0.010023851 0.059784684 0.78063214
-0.010046469 0.062062919 0.78239357
-0.0099997148 0.063907459 0.77875245
-0.0099906102 0.065980688 0.77804345
-0.0081816539 -0.0067537897 0.80996674
-0.0081868106 -0.0045377747 0.8104772
-0.0081519391 -0.0023076318 0.80702502
-0.0081814816 -9.7168449e-05 0.8099497
-0.0081400732 0.0021109197 0.80585033
-0.0081422795 0.0043196864 0.80606872
-0.0081036529 0.0064969128 0.80224478
-0.0080993315 0.0086899959 0.801817
-0.0081134168 0.010905475 0.80321139
-0.0081178881 0.013113065 0.80365402
-0.0081106378 0.015300966 0.80293626
-0.0080927936 0.017462077 0.80116975
-0.0080880206 0.019645257 0.80069721
-0.0080893347 0.021842286 0.80082732
-0.0080929128 0.024046753 0.80118155
-0.008100478 0.026266089 0.80193043
-0.0081264591 0.028554237 0.80450255
-0.0081407465 0.030812219 0.80591697
-0.0081614899 0.033104137 0.80797052
-0.0080969008 0.035038043 0.80157632
-0.0080579976 0.03705503 0.79772502
-0.007998853 0.038952347 0.79186976
-0.0080064591 0.041160751 0.7926228
-0.0079976264 0.043284304 0.7917484
-0.0080003394 0.045468688 0.79201692
-0.0079714684 0.047466476 0.78915876
-0.0079732873 0.049639672 0.78933889
-0.0079731997 0.051801465 0.78933018
-0.0079986136 0.054135811 0.7918461
-0.0079430379 0.055913825 0.78634423
-0.0079211853 0.05790823 0.78418082
-0.0078947293 0.059855882 0.78156179
-0.0079102702 0.062118981 0.78310031
-0.0078829275 0.064042121 0.78039342
-0.0078707719 0.066077925 0.77919006
-0.0059500178 -0.0067393333 0.80823302
-0.0059574652 -0.0045308736 0.80924463
-0.0059302663 -0.0023034143 0.80555004
-0.0059447926 -9.6877353e-05 0.80752325
-0.0059161647 0.0021051154 0.80363452
-0.0059290919 0.004316052 0.80539054
-0.0059108855 0.0065023601 0.80291742
-0.0059144311 0.0087071415 0.80339903
-0.005926433 0.010930158 0.80502933
-0.0059256046 0.013133669 0.8049168
-0.0059195305 0.015322984 0.80409169
-0.0058973059 0.017459964 0.80107278
-0.0058949278 0.019646546 0.80074972
-0.0059015863 0.021864839 0.80165422
-0.0059180357 0.024128005 0.80388868
-0.0059293909 0.026380749 0.80543113
-0.0059536831 0.028704314 0.8087309
-0.006039002 0.031362895 0.82032037
-0.0061152172 0.034034312 0.83067322
-0.0060231802 0.035763428 0.8181712
-0.0059422418 0.037494075 0.80717677
-0.00590753 0.039473362 0.80246156
-0.005919971 0.041759435 0.80415154
-0.0059130238 0.043910787 0.80320787
-0.0058815721 0.045865875 0.79893553
-0.0058333352 0.047660418 0.79238319
-0.005818116 0.04970111 0.79031587
-0.0057979082 0.051686011 0.78757089
-0.0058126552 0.053980481 0.78957409
-0.0057750479 0.055780243 0.78446561
-0.0057781902 0.057960778 0.78489244
-0.0057554329 0.059874214 0.78180116
-0.005759995 0.062065084 0.78242087
-0.0057440856 0.064031154 0.78025979
-0.0057437033 0.06616424 0.78020787
-0.0037194963 -0.0067097521 0.80468541
-0.0037304766 -0.0045186472 0.8070609
-0.0037199727 -0.0023012366 0.80478847
-0.0037270379 -9.6732634e-05 0.80631697
-0.0037178006 0.0021069073 0.80431855
-0.0037311947 0.0043258355 0.80721623
-0.0037167317 0.006511834 0.80408728
-0.0037114678 0.0087022586 0.80294847
-0.0037149794 0.01091222 0.8037082
-0.0037191242 0.01312858 0.80460489
-0.0037190989 0.015332659 0.8045994
-0.0037052105 0.017471341 0.80159479
-0.00370596 0.019671258 0.80175692
-0.0037161252 0.021927623 0.80395609
-0.0037494826 0.024346629 0.81117272
-0.0038704926 0.027426284 0.83735234
nan nan nan
nan nan nan
nan nan nan
nan nan nan
-0.0039311955 0.039505776 0.85048491
-0.003898747 0.041490335 0.84346497
-0.0039272844 0.044121582 0.84963882
-0.0038592315 0.04564425 0.83491606
-0.0037761379 0.046899457 0.81693941
-0.0036912593 0.048032936 0.79857653
-0.0036571447 0.049756467 0.79119611
-0.0036325823 0.051575184 0.78588217
-0.0036456108 0.053920776 0.78870082
-0.0036360079 0.055933665 0.7866233
-0.0036372445 0.058108348 0.7868908
-0.0036201517 0.059980802 0.78319293
-0.0036160995 0.062056787 0.78231627
-0.0036081325 0.064058475 0.78059268
-0.0036096277 0.066224307 0.78091615
-0.0015145428 -0.0067073237 0.80439419
-0.0015210157 -0.0045229644 0.80783194
-0.0015129305 -0.0022976606 0.80353785
-0.0015158764 -9.6586926e-05 0.80510241
-0.0015115425 0.002102931 0.80280066
-0.0015207599 0.0043284073 0.8076961
-0.001514009 0.006512023 0.80411059
-0.0015147475 0.0087191043 0.80450284
-0.0015146383 0.010922222 0.80444485
-0.0015153233 0.013131904 0.80480868
-0.0015158177 0.015341651 0.80507123
-0.0015123007 0.017506402 0.80320334
-0.0015211636 0.019822238 0.80791056
-0.0015842027 0.02294866 0.8413915
nan nan nan
nan nan nan
nan nan nan
nan nan nan
-0.0020022399 0.043570269 1.0634167
-0.0019774365 0.045907628 1.0502433
nan nan nan
nan nan nan
nan nan nan
nan nan nan
nan nan nan
-0.0015600281 0.049835905 0.82855195
-0.0015043716 0.050246738 0.7989921
-0.0014822936 0.05166601 0.78726614
-0.0014837881 0.053876963 0.78805995
-0.0014800038 0.055892903 0.78605002
-0.0014838602 0.058197509 0.78809822
-0.0014770509 0.060079504 0.7844817
-0.0014750848 0.062145729 0.78343749
-0.0014708117 0.064105682 0.78116792
-0.0014701759 0.06621702 0.78083026
0.00068864599 -0.0067032515 0.80390579
0.00069201004 -0.0045229695 0.8078329
0.00069001655 -0.0023032874 0.80550569
0.00069161982 -9.6859847e-05 0.80737734
0.00068913028 0.0021073068 0.80447108
0.00069086638 0.0043219859 0.80649781
0.00068791228 0.0065034279 0.80304927
0.00068903185 0.0087175155 0.80435622
0.00068835216 0.010910246 0.80356276
0.00068909419 0.013125709 0.80442899
0.00069084403 0.015368338 0.80647171
0.00069413555 0.017661385 0.81031412
nan nan nan
nan nan nan
nan nan nan
0.00090203946 0.034490015 1.0530152
0.00091053342 0.037726641 1.0629308
0.00091914111 0.041022677 1.0729792
0.00092526467 0.044254951 1.0801277
0.00091682578 0.046783306 1.0702764
0.00090699596 0.049182255 1.0588013
0.0008899945 0.05110652 1.0389543
0.00086876319 0.052665625 1.0141695
0.00084512669 0.053935438 0.98657691
nan nan nan
0.00075802271 0.053224787 0.88489419
0.00070762081 0.051948749 0.82605642
0.00068142638 0.052204918 0.79547781
0.00067865063 0.054162566 0.79223746
0.00067599147 0.05611214 0.78913325
0.00067589781 0.058265869 0.78902388
0.00067165273 0.060047846 0.78406835
0.00067048613 0.062087737 0.78270644
0.00066817232 0.064010277 0.7800054
0.00066899363 0.066228375 0.78096414
0.0028926684 -0.0067073163 0.80439329
0.0029049453 -0.0045228261 0.80780727
0.0029004668 -0.0023063074 0.80656183
0.0029091104 -9.7050368e-05 0.80896544
0.0028922278 0.002106782 0.8042708
0.0028912849 0.0043086461 0.80400854
0.0028819214 0.0064901095 0.80140471
0.0028914311 0.0087141879 0.80404919
0.0028914169 0.010916797 0.80404526
0.0028999771 0.01315829 0.80642569
0.0029277056 0.015514399 0.81413645
nan nan nan
nan nan nan
0.0037418117 0.028379904 1.0405231
0.0038381766 0.032034669 1.0673202
0.0038593032 0.035150975 1.0731951
0.0038721925 0.038218167 1.0767794
0.0038590392 0.041028123 1.0731217
0.0038688707 0.044079915 1.0758556
0.0038365198 0.046633948 1.0668595
0.0038022141 0.049113438 1.0573198
0.0037224011 0.050918177 1.0351254
0.0036380128 0.052535243 1.0116587
0.0035315088 0.05368752 0.98204201
0.0034171238 0.054551721 0.95023388
0.0032996852 0.055190574 0.91757655
0.0031464961 0.055025294 0.87497771
0.0029499889 0.053836092 0.820333
0.0028723353 0.054607056 0.79873902
0.0028404742 0.056165177 0.78987914
0.0028313808 0.05814229 0.78735042
0.0028106878 0.059858512 0.78159612
0.0028076961 0.061933666 0.78076416
0.0027989666 0.063873336 0.7783367
0.0028048304 0.066143841 0.77996731
0.0050943452 -0.0067047793 0.80408901
0.0051169856 -0.0045220158 0.80766255
0.0051277177 -0.0023142986 0.80935651
0.0051456308 -9.7436481e-05 0.81218386
0.0051121493 0.0021136671 0.80689919
0.0050965096 0.0043109078 0.8044306
0.0050849547 0.0064998441 0.80260676
0.0051074275 0.0087369988 0.80615389
0.0051195575 0.010971421 0.80806845
0.0051553175 0.013277193 0.81371284
0.0054019522 0.016248163 0.85264152
nan nan nan
0.0064750593 0.025075458 1.0220202
0.006620035 0.028499369 1.0449032
0.0067703887 0.032074127 1.0686349
0.0068244161 0.035280924 1.0771625
0.0068317726 0.038272981 1.0783237
0.0067691184 0.040848915 1.0684344
0.0067279674 0.043509729 1.0619391
0.0066809882 0.046094742 1.0545239
0.0066152294 0.048501439 1.0441446
0.006502043 0.050483037 1.0262793
0.0063695977 0.052208889 1.0053742
0.0061725536 0.053262785 0.97427285
0.0060100621 0.054459378 0.94862533
0.0058507309 0.055545446 0.92347652
0.0056818947 0.056399379 0.89682752
0.0054066991 0.056005582 0.85339081
0.0051576449 0.055655878 0.81408018
0.0050310879 0.056465626 0.79410452
0.0049833828 0.058085009 0.78657472
0.004945491 0.05978176 0.78059393
0.0049441764 0.0619037 0.78038639
0.0049251663 0.063795306 0.77738583
0.0049336059 0.066037893 0.77871794
0.0073066168 -0.0067135082 0.80513585
0.0073294612 -0.0045219632 0.80765313
0.0073328684 -0.0023105014 0.80802858
0.0073548998 -9.7229226e-05 0.81045628
0.0073108552 0.0021102715 0.80560291
0.0073096398 0.0043164724 0.80546898
0.0073003499 0.0065147332 0.80444527
0.0073484308 0.008775902 0.80974346
0.0074036964 0.011076847 0.81583333
0.0075973612 0.01366 0.83717376
0.0081351651 0.017082719 0.89643586
nan nan nan
0.0091207884 0.024658952 1.0050443
0.009364292 0.028144076 1.0318767
0.009600292 0.031751391 1.0578821
0.0096646994 0.034881879 1.0649793
0.0096478695 0.037733525 1.0631248
0.0095492555 0.04023046 1.0522583
0.0094851237 0.042823542 1.0451914
0.0094074076 0.045312472 1.0366277
0.0093459925 0.047837913 1.0298601
0.0092213936 0.049983803 1.0161303
0.0090315556 0.051681146 0.99521154
0.008792636 0.052968197 0.96888429
0.0085906722 0.054344792 0.94662941
0.0083739161 0.055501413 0.92274445
0.008127559 0.056322038 0.8955977
0.0078567239 0.056816921 0.86575365
0.0075292918 0.056721903 0.82967299
0.0072372984 0.056706883 0.79749745
0.0071378746 0.058082569 0.7865417
0.0070899143 0.059832525 0.78125679
0.007088494 0.061960336 0.78110033
0.0070627024 0.063866898 0.77825826
0.0070671993 0.066040933 0.77875382
0.009526086 -0.0067232694 0.80630648
0.0095397597 -0.0045209033 0.80746382
0.0095039401 -0.0023002173 0.80443197
0.0095308265 -9.6779513e-05 0.80670768
0.0094856862 0.0021031571 0.80288696
0.0095230481 0.0043195821 0.80604929
0.0095300302 0.0065325093 0.80664027
0.0096545611 0.008856507 0.81718087
0.0098143071 0.011278725 0.83070207
0.010243693 0.014147422 0.86704618
0.011071136 0.017857293 0.93708253
0.011409803 0.021049179 0.96574795
0.011750709 0.024402769 0.99460292
0.012037429 0.027789364 1.0188714
0.01230889 0.031270158 1.0418484
0.012343251 0.034219518 1.0447568
0.012333309 0.037051722 1.0439153
0.012268501 0.039701767 1.0384299
0.012180632 0.042241778 1.0309924
0.012079714 0.044692766 1.0224504
0.011964388 0.047040302 1.0126891
0.011792363 0.049098287 0.99812853
0.011596036 0.050969683 0.98151106
0.011359997 0.052566264 0.96153224
0.011138337 0.054123256 0.94277048
0.010831717 0.055144925 0.91681761
0.010512091 0.055955164 0.88976389
0.010204806 0.056685731 0.86375463
0.0099022407 0.057301104 0.83814496
0.0094973547 0.05716034 0.80387461
0.0093224887 0.058269538 0.78907359
0.009242855 0.059914961 0.7823332
0.0092227785 0.061923336 0.78063393
0.0091799684 0.063764498 0.77701038
0.0091777137 0.065876901 0.77681953
0.011723382 -0.0067166523 0.80551291
0.011724803 -0.0045105265 0.80561048
0.011685515 -0.002295868 0.80291098
0.011700081 -9.6444091e-05 0.80391181
0.011665527 0.0020996227 0.80153763
0.011731036 0.0043195258 0.8060388
0.011761991 0.0065448629 0.80816573
0.011931408 0.0088849617 0.81980634
0.012080153 0.011269553 0.83002651
0.012550787 0.01407102 0.86236382
0.013478789 0.017648516 0.92612678
0.013914523 0.020838154 0.95606601
0.014259218 0.024038352 0.97975004
0.01461088 0.027381368 1.0039127
0.014822395 0.030567748 1.0184458
0.01488149 0.033490736 1.0225062
0.01486396 0.036249097 1.0213017
0.014831414 0.038961418 1.0190655
0.014667155 0.041290697 1.0077794
0.014549592 0.043698378 0.99970156
0.014431795 0.046061058 0.99160779
0.014268451 0.048225448 0.98038441
0.014064354 0.050182935 0.96636087
0.013830683 0.0519525 0.9503054
0.013584111 0.053583212 0.93336344
0.013245554 0.054740943 0.91010118
0.012902125 0.055750169 0.88650417
0.012536725 0.056531046 0.86139762
0.012257998 0.057581499 0.84224629
0.011795192 0.05762767 0.81044692
0.01151727 0.058437712 0.79135096
0.011393297 0.059953216 0.78283274
0.011355914 0.061894007 0.7802642
0.01131124 0.063779615 0.77719462
0.011283336 0.065746114 0.77527732
0.013889845 -0.006697264 0.80318773
0.013936267 -0.0045119915 0.80587214
0.013872539 -0.0022937979 0.80218703
0.013901581 -9.6438642e-05 0.80386639
0.013857382 0.0020990279 0.8013106
0.013954077 0.0043241517 0.80690199
0.013994793 0.006553696 0.80925643
0.014211964 0.0089067258 0.82181448
0.014318421 0.011241637 0.82797045
0.014811986 0.013975522 0.85651106
0.015696079 0.017296117 0.90763414
0.016314585 0.020562083 0.94339967
0.01670217 0.023696378 0.96581197
0.017045474 0.026883634 0.98566371
0.01724519 0.029930446 0.99721241
0.017322602 0.032808889 1.0016887
0.017375853 0.035662267 1.004768
0.017334798 0.038324028 1.0023941
0.017152077 0.040637143 0.99182808
0.016965734 0.04288321 0.9810527
0.016810829 0.045154683 0.97209525
0.016673503 0.047427084 0.9641543
0.016467644 0.049450178 0.95225036
0.016209228 0.051241908 0.93730736
0.015930044 0.05288282 0.92116338
0.015599221 0.054255676 0.90203333
0.015237919 0.055412885 0.88114089
0.014827224 0.056268185 0.85739225
0.014522231 0.057411235 0.83975583
0.014076274 0.057878047 0.81396812
0.013697051 0.058488544 0.79203933
0.013534153 0.0599369 0.78261966
0.013492943 0.061891824 0.78023666
0.013427541 0.0637189 0.77645475
0.013371298 0.065570161 0.77320248
0.016038964 -0.0066759605 0.80063283
0.016123554 -0.0045062988 0.80485541
0.016079882 -0.0022951944 0.80267537
0.016115671 -9.6510077e-05 0.80446184
0.016081735 0.0021028453 0.80276793
0.016179686 0.0043281997 0.80765736
0.0162227 0.0065581356 0.80980462
0.016443156 0.0088958312 0.82080925
0.016505202 0.01118646 0.82390654
0.016954238 0.013809261 0.84632146
0.017761497 0.016895631 0.8866182
0.018370636 0.019987231 0.91702521
0.018922823 0.023175674 0.9445892
0.019288359 0.026261019 0.96283609
0.019507244 0.029226614 0.97376239
0.01961731 0.032074157 0.97925663
0.019668512 0.034847509 0.9818126
0.019631471 0.037466455 0.97996354
0.019444877 0.039769396 0.97064912
0.019251216 0.042005889 0.96098197
0.019119585 0.044333242 0.95441121
0.01897716 0.046598095 0.94730163
0.018744683 0.048590563 0.9356969
0.018446378 0.050339796 0.92080611
0.018222259 0.052220043 0.9096185
0.01790553 0.053760942 0.89380807
0.017522331 0.055006545 0.87467957
0.017089933 0.055986177 0.85309511
0.016755255 0.057181027 0.83638859
0.016227426 0.05759877 0.81004047
0.015889861 0.058573507 0.79318988
0.015698968 0.060016643 0.78366089
0.015661959 0.062016901 0.78181344
0.015549837 0.06369935 0.77621657
0.015481322 0.065535732 0.77279645
0.018214103 -0.006669309 0.79983515
0.018323353 -0.0045050513 0.8046326
0.018254211 -0.0022921092 0.8015964
0.018315803 -9.6490796e-05 0.80430108
0.018262316 0.0021007089 0.8019523
0.018392477 0.0043282574 0.80766809
0.018426377 0.006552889 0.80915678
0.018667558 0.0088843266 0.81974769
0.018713329 0.011157284 0.82175761
0.019040847 0.013643131 0.83613992
0.019770913 0.016544634 0.86819929
0.020322075 0.01945056 0.89240247
0.020905424 0.022523768 0.918019
0.021316266 0.025530718 0.93606031
0.021705391 0.02860789 0.95314795
0.021815922 0.031377979 0.95800167
0.021806473 0.03398766 0.95758677
0.021710858 0.036450405 0.95338798
0.021640752 0.038936038 0.9503094
0.02151431 0.041296672 0.94475698
0.021395318 0.043642078 0.93953168
0.021165419 0.045719288 0.92943621
0.020927353 0.047722559 0.91898197
0.020663055 0.049605574 0.90737587
0.020450125 0.051554501 0.89802545
0.020124221 0.053153805 0.88371408
0.01972549 0.054473575 0.86620462
0.019301107 0.055623498 0.84756875
0.018935012 0.056846291 0.83149236
0.018406095 0.057472602 0.8082661
0.018141966 0.058830306 0.7966674
0.017934654 0.060315542 0.78756374
0.017847717 0.0621702 0.783746
0.017679367 0.06371057 0.7763533
0.017578606 0.065462127 0.77192855
0.020406585 -0.0066697551 0.79988867
0.02049977 -0.0044989409 0.80354124
0.020440148 -0.0022909876 0.8012042
0.020491987 -9.6363037e-05 0.80323619
0.0204434 0.0020990833 0.8013317
0.020555528 0.0043178541 0.80572683
0.020608261 0.0065418514 0.80779386
0.020828024 0.0088481307 0.81640798
0.020904791 0.011125505 0.81941706
0.021168491 0.013538925 0.82975352
0.021808365 0.016289962 0.85483503
0.022309104 0.019059552 0.87446278
0.02282995 0.021956015 0.89487863
0.023084326 0.024679458 0.90484959
0.02353646 0.027690183 0.92257214
0.023739837 0.030478643 0.93054402
0.023828682 0.033151437 0.93402654
0.02371834 0.035544809 0.92970145
0.023694072 0.038052715 0.92875016
0.023615953 0.040463142 0.92568803
0.023599621 0.04296929 0.92504787
0.023336519 0.044996127 0.9147349
0.023140676 0.047103368 0.90705836
0.022814659 0.048889596 0.8942793
0.022632776 0.050930154 0.88714993
0.022262014 0.052486338 0.87261701
0.021921812 0.054038219 0.85928184
0.021505471 0.055321191 0.84296232
0.021117991 0.056592077 0.82777399
0.020584237 0.05737206 0.80685216
0.020358495 0.058928985 0.79800367
0.020154836 0.060503703 0.79002064
0.019988447 0.062150579 0.78349864
0.019776084 0.063613832 0.7751745
0.019656485 0.065339841 0.77048653
0.02253437 -0.0066510192 0.79764169
0.02261807 -0.0044824979 0.8006044
0.022568194 -0.0022842244 0.79883897
0.022592071 -9.5936906e-05 0.79968417
0.022517689 0.0020878706 0.79705125
0.022594327 0.0042858995 0.79976398
0.0226034 0.006479423 0.80008513
0.022806216 0.0087490315 0.80726415
0.022958601 0.011033736 0.81265807
0.023313211 0.013464791 0.82521009
0.023831269 0.016074866 0.84354758
0.024280574 0.018732371 0.85945153
0.024703845 0.021454401 0.87443393
0.02496638 0.024103338 0.88372672
0.025435483 0.027022649 0.90033144
0.025715765 0.029814022 0.91025245
0.025862629 0.032492135 0.91545099
0.025791135 0.034903225 0.9129203
0.025793927 0.037408188 0.91301918
0.025729183 0.039809193 0.91072744
0.025655836 0.042183496 0.90813118
0.025466578 0.044341758 0.9014321
0.02526255 0.046436165 0.89421016
0.024930155 0.048242595 0.8824445
0.024673384 0.050138243 0.87335569
0.024388159 0.05192351 0.86325967
0.024050791 0.053537387 0.85131794
0.023655862 0.05495213 0.83733875
0.023175264 0.056082968 0.82032722
0.022766164 0.057300545 0.80584639
0.022523331 0.058873396 0.79725093
0.022385398 0.060683522 0.79236859
0.022142798 0.062173005 0.78378135
0.02190721 0.063635811 0.7754423
0.02172029 0.065199018 0.76882595
0.024670484 -0.0066378363 0.79606068
0.024739014 -0.0044694394 0.79827201
0.024682505 -0.0022773894 0.79644859
0.024673937 -9.5515577e-05 0.79617214
0.0246209 0.0020810848 0.79446071
0.024683166 0.0042682467 0.79646993
0.02468832 0.0064514922 0.79663622
0.0248082 0.0086757708 0.80050451
0.024970004 0.010939611 0.80572557
0.025340939 0.013342164 0.81769478
0.025848571 0.015894352 0.83407491
0.026259035 0.018467948 0.84731966
0.026714459 0.021149704 0.86201519
0.026962522 0.023729483 0.87001961
0.027353738 0.026491754 0.88264322
0.027603969 0.029174186 0.89071763
0.027895059 0.031947654 0.90011048
0.027878178 0.034392647 0.89956576
0.027858691 0.036831208 0.89893693
0.027672695 0.039031472 0.89293528
0.027600389 0.041369256 0.89060211
0.027381858 0.043462157 0.88355058
0.027261175 0.045680393 0.87965643
0.026947621 0.047537047 0.86953878
0.026749555 0.04955221 0.86314762
0.026433159 0.051302694 0.85293823
0.026077515 0.052917596 0.84146237
0.025605749 0.054223724 0.82623959
0.025205327 0.055603832 0.81331891
0.024860835 0.05704147 0.80220288
0.024674077 0.058794066 0.79617661
0.024496496 0.060536318 0.79044652
0.024240786 0.062047195 0.78219533
0.023990816 0.063528068 0.77412933
0.023837218 0.065228455 0.76917309
0.026748022 -0.0066123148 0.79299998
0.026782604 -0.0044456618 0.79402524
0.026755188 -0.0022681358 0.79321241
0.026761258 -9.5182091e-05 0.79339236
0.026694881 0.0020731313 0.79142451
0.02677099 0.0042533004 0.79368091
0.026762879 0.0064256112 0.7934404
0.026836682 0.0086229257 0.79562849
0.026938813 0.01084363 0.79865634
0.027272915 0.013193139 0.8085615
0.027800044 0.015705969 0.82418931
0.028105833 0.018161399 0.83325505
0.028616343 0.020815412 0.84839016
0.028812496 0.023298159 0.85420555
0.029207088 0.025989341 0.86590403
0.029374674 0.028524186 0.87087244
0.029749459 0.031304277 0.8819837
0.029766077 0.033739276 0.88247639
0.029815054 0.036216281 0.88392842
0.029503202 0.038233634 0.8746829
0.029421138 0.040516783 0.87224996
0.029216841 0.042608343 0.86619318
0.029174821 0.044916555 0.86494744
0.028885199 0.046816628 0.85636097
0.028650386 0.048762944 0.84939945
0.028252523 0.050380368 0.83760399
0.027888881 0.051996961 0.82682306
0.027449897 0.053407907 0.8138085
0.027203931 0.055138759 0.80651629
0.026895706 0.056698415 0.79737836
0.026807338 0.058689345 0.7947585
0.026579211 0.060348585 0.78799522
0.026314208 0.061884049 0.78013867
0.026051886 0.063382998 0.77236158
0.025906265 0.065132737 0.76804435
0.028834464 -0.006592663 0.79064316
0.028886056 -0.0044346466 0.79205781
0.028858075 -0.0022626403 0.79129058
0.028957862 -9.5258198e-05 0.79402673
0.028900255 0.0020758102 0.79244715
0.028993228 0.004260351 0.7949965
0.028904336 0.0064184736 0.79255903
0.028930103 0.0085973162 0.79326558
0.028977424 0.010788054 0.79456311
0.029258059 0.013090289 0.80225819
0.029667523 0.015501998 0.81348568
0.030003797 0.017931484 0.82270634
0.030434221 0.020474825 0.8345086
0.030732373 0.022983912 0.84268397
0.031066552 0.025567437 0.85184717
0.0311535 0.02797913 0.8542313
0.031469613 0.030626912 0.86289918
0.031484354 0.033006243 0.86330336
0.031498764 0.035387419 0.86369848
0.031323735 0.037543703 0.85889912
0.031298578 0.039864581 0.85820931
0.03107837 0.041918598 0.85217124
0.030992171 0.044130348 0.84980762
0.030680809 0.045991622 0.84127009
0.030460587 0.047949582 0.83523154
0.029960625 0.0494131 0.82152259
0.029725008 0.051257331 0.81506193
0.029368967 0.052849472 0.80529928
0.0292648 0.054860286 0.80244303
0.02896232 0.056468789 0.79414898
0.028898768 0.058515649 0.79240638
0.028611422 0.060082994 0.7845273
0.028394407 0.06176015 0.77857673
0.028165618 0.063378215 0.77230334
0.028037691 0.065196447 0.76879561
0.030820647 -0.0065544359 0.78605866
0.030890226 -0.0044109933 0.78783321
0.030913062 -0.0022544195 0.78841561
0.03108605 -9.511433e-05 0.79282755
0.031021055 0.0020724644 0.79116988
0.031077441 0.0042475509 0.79260796
0.03093864 0.0063902014 0.78906798
0.031005602 0.0085703321 0.79077578
0.031032059 0.010745795 0.79145056
0.031259317 0.013008516 0.79724663
0.031520043 0.01531926 0.80389625
0.031764612 0.017657455 0.81013376
0.032236289 0.020171938 0.82216358
0.032447468 0.022571126 0.82754958
0.032840673 0.025139159 0.83757794
0.032844279 0.027436685 0.83766991
0.033138212 0.029997524 0.8451665
0.033158824 0.032332927 0.84569222
0.033292424 0.034789272 0.84909952
0.033130974 0.036935359 0.84498185
0.033030428 0.039131038 0.84241754
0.032747749 0.04108417 0.835208
0.032686915 0.043291621 0.83365649
0.032419711 0.045202829 0.82684165
0.032253008 0.047223847 0.82258999
0.031809423 0.048796829 0.81127667
0.031647295 0.050759248 0.80714172
0.031390939 0.052541308 0.80060357
0.031380549 0.054716405 0.80033851
0.031117782 0.056432374 0.79363686
0.030976903 0.058341186 0.79004383
0.030601531 0.059772287 0.78047025
0.030388039 0.061478432 0.77502525
0.030190051 0.063187204 0.76997572
0.030036865 0.064965203 0.76606882
0.032933749 -0.0065464303 0.78509855
0.033032775 -0.0044088992 0.78745919
0.033040702 -0.0022522253 0.7876482
0.033196967 -9.4939867e-05 0.79137331
0.03318093 0.0020719958 0.79099101
0.033241306 0.0042465986 0.79243028
0.033112042 0.0063924761 0.78934884
0.033185009 0.0085737193 0.79108828
0.033189986 0.010742486 0.7912069
0.033295717 0.012951094 0.7937274
0.033357531 0.015153561 0.795201
0.033575214 0.017445087 0.80039024
0.034037162 0.019907914 0.8114025
0.034256246 0.022273168 0.81662518
0.034552149 0.024722001 0.82367921
0.034570403 0.026992692 0.82411432
0.034789473 0.029435674 0.82933664
0.034797244 0.031714693 0.82952189
0.034896161 0.034083754 0.83187997
0.034864567 0.036329735 0.83112681
0.034731831 0.038459592 0.82796252
0.034518756 0.040477905 0.82288313
0.034431513 0.042624161 0.82080334
0.034237694 0.044620126 0.81618297
0.034119323 0.046694033 0.81336117
0.033722576 0.048353326 0.80390322
0.033645473 0.050439999 0.80206519
0.033494283 0.052400693 0.79846096
0.033486322 0.054575071 0.79827118
0.033268571 0.0563928 0.79308033
0.032978348 0.058054511 0.78616172
0.032624733 0.059562579 0.77773201
0.032432187 0.061329041 0.77314198
0.032293301 0.063175336 0.76983106
0.03210406 0.064901687 0.76531988
0.035017312 -0.0065338938 0.78359509
0.035131659 -0.0044015911 0.78615391
0.035129137 -0.002247791 0.78609753
0.035306152 -9.4782146e-05 0.79005861
0.03532682 0.002070765 0.79052114
0.035392068 0.0042441916 0.79198116
0.035313345 0.0063995277 0.7902196
0.035351004 0.0085734371 0.7910623
0.035377976 0.010748717 0.79166585
0.035397246 0.012924491 0.79209703
0.035424292 0.015105944 0.79270226
0.035456855 0.017293405 0.79343098
0.035726372 0.019614952 0.79946202
0.035864305 0.021889232 0.80254859
0.036212791 0.024321839 0.81034678
0.036281154 0.02659186 0.81187654
0.036451638 0.028951367 0.81569153
0.036444362 0.031179702 0.81552875
0.036617383 0.033572447 0.81940049
0.036590248 0.035790622 0.8187933
0.036553122 0.037995081 0.81796253
0.036356397 0.040019315 0.81356037
0.036303792 0.042186905 0.81238317
0.03602853 0.044075649 0.80622351
0.035918906 0.046143439 0.80377042
0.035605881 0.047924019 0.79676574
0.035630435 0.050141286 0.79731524
0.035513625 0.052153956 0.79470128
0.035508383 0.054322992 0.79458404
0.035335209 0.056224175 0.79070884
0.035056204 0.057929248 0.78446543
0.034695264 0.059459686 0.77638853
0.034460362 0.061169606 0.77113205
0.034341685 0.063064158 0.76847637
0.034178309 0.064859338 0.76482046
0.03723859 -0.006547018 0.78516906
0.037344649 -0.0044085975 0.78740531
0.037277453 -0.0022474795 0.78598851
0.037469704 -9.4780167e-05 0.7900421
0.037418924 0.0020667056 0.78897142
0.037566587 0.0042447476 0.79208487
0.037413247 0.00638845 0.78885168
0.037508447 0.0085712336 0.79085898
0.037544552 0.010748099 0.79162025
0.037583128 0.012929983 0.79243362
0.037547223 0.015086398 0.79167658
0.037479412 0.017224003 0.79024678
0.037660476 0.019482521 0.79406446
0.037703317 0.021682469 0.79496777
0.038011964 0.024055576 0.80147552
0.038022395 0.026258392 0.80169547
0.03826848 0.028638767 0.80688417
0.038167406 0.030767718 0.80475301
0.038320158 0.033104267 0.80797374
0.038302723 0.035301615 0.80760616
0.038373187 0.037583031 0.80909187
0.038231686 0.03965275 0.80610836
0.038150053 0.041771669 0.80438709
0.037906043 0.043693986 0.7992422
0.037823349 0.045783382 0.79749858
0.037577644 0.047656495 0.79231799
0.03764414 0.049915191 0.79372001
0.03755546 0.05196685 0.79185021
0.037452567 0.053987771 0.78968072
0.037274707 0.05588441 0.78593057
0.037022136 0.057644185 0.7806052
0.03681137 0.059442282 0.77616125
0.036580585 0.061182547 0.77129519
0.036416803 0.063012086 0.76784182
0.03626534 0.064844735 0.76464826
0.039450664 -0.0065571791 0.78638768
0.039505094 -0.0044089751 0.78747272
0.039374046 -0.0022442539 0.78486043
0.039541539 -9.4559073e-05 0.78819919
0.03943054 0.0020588867 0.78598654
0.039592411 0.0042293584 0.78921324
0.039451983 0.0063687083 0.78641397
0.039567709 0.0085480604 0.78872079
0.039660621 0.010733877 0.79057288
0.039758865 0.012931576 0.79253125
0.039754216 0.015100919 0.79243857
0.039582863 0.017197328 0.78902292
0.039598357 0.019366402 0.78933173
0.039544448 0.021499438 0.78825712
0.039741971 0.023777012 0.79219443
0.039792992 0.025980512 0.79321146
0.040031277 0.028322069 0.79796129
0.039955121 0.030450016 0.79644328
0.040213205 0.032842621 0.80158776
0.040126476 0.034962974 0.79985899
0.040257864 0.03727581 0.80247796
0.04005513 0.039275382 0.79843676
0.040042914 0.041450027 0.79819334
0.039884921 0.043464471 0.79504395
0.039884675 0.045642182 0.79503906
0.039727937 0.04763224 0.7919147
0.039756548 0.049837526 0.79248506
0.039642479 0.051859289 0.79021126
0.039520014 0.053857148 0.78777009
0.039312679 0.055721335 0.78363717
0.03909032 0.057540774 0.77920485
0.038818993 0.059261166 0.77379632
0.038513333 0.060897637 0.76770347
0.038336311 0.062711157 0.76417482
0.038240056 0.064641878 0.76225615
0.04172032 -0.0065753632 0.78856844
0.041730694 -0.0044162078 0.78876454
0.041542739 -0.0022452588 0.78521192
0.041625675 -9.4388764e-05 0.78677958
0.041433576 0.0020514529 0.78314865
0.041569974 0.0042106747 0.78572673
0.041450221 0.006344812 0.78346324
0.041645028 0.0085309865 0.78714538
0.041697524 0.010700813 0.78813761
0.041801792 0.012892043 0.79010838
0.04177947 0.015048475 0.7896865
0.041628949 0.017149782 0.78684145
0.041580316 0.019282751 0.78592223
0.04150784 0.021398392 0.78455234
0.041647892 0.023627095 0.7871995
0.041675765 0.025800854 0.78772634
0.041803449 0.028044457 0.79013973
0.041631673 0.030084884 0.78689295
0.041822396 0.032388248 0.79049784
0.0418377 0.034566429 0.7907871
0.042129822 0.036989238 0.79630858
0.0419912 0.03904181 0.79368848
0.041980401 0.041205488 0.79348433
0.04187233 0.043267537 0.79144168
0.041918572 0.045485836 0.79231566
0.041768081 0.04748527 0.78947121
0.041802742 0.049689192 0.79012632
0.041673966 0.05169398 0.78769231
0.041539088 0.05367754 0.78514296
0.041232154 0.055415884 0.77934146
0.041006599 0.057236038 0.77507818
0.040686432 0.058895878 0.76902664
0.04044538 0.060641181 0.76447046
0.040279653 0.06247836 0.761338
0.040224385 0.064475425 0.76029336
0.043852117 -0.0065710996 0.78805709
0.043807909 -0.0044077989 0.78726262
0.043593876 -0.0022401244 0.78341627
0.043584619 -9.3965318e-05 0.78324991
0.043487675 0.0020471546 0.78150779
0.043611988 0.0042000371 0.78374177
0.043650065 0.006352609 0.78442603
0.043705303 0.0085122725 0.78541869
0.043781571 0.010682506 0.7867893
0.043834597 0.012853434 0.7877422
0.04383003 0.01500986 0.78766012
0.043641608 0.017093822 0.78427404
0.043550938 0.019202333 0.78264463
0.04345417 0.02129893 0.78090566
0.043539032 0.023483964 0.78243071
0.043532338 0.025623461 0.78231037
0.043669518 0.027854068 0.78477561
0.043588921 0.029948557 0.78332722
0.043749552 0.032212723 0.78621387
0.04380383 0.034409165 0.7871893
0.044051073 0.036772028 0.79163247
0.044020373 0.038913537 0.79108077
0.044027925 0.041087721 0.79121649
0.043898489 0.043128062 0.78889042
0.04385725 0.04524665 0.7881493
0.043671384 0.047204856 0.78480917
0.043753799 0.049447946 0.78629023
0.043618523 0.051442422 0.78385919
0.043553919 0.053510401 0.78269821
0.043243781 0.055258267 0.77712482
0.042992696 0.057053972 0.77261263
0.042627949 0.058668509 0.76605779
0.042381499 0.060415775 0.76162893
0.042273067 0.062342323 0.75968033
0.042251837 0.064391084 0.7592988
0.045824628 -0.0065444866 0.7848655
0.045915458 -0.0044030878 0.78642118
0.045758244 -0.0022410171 0.78372848
0.045736652 -9.3978357e-05 0.78335863
0.045614023 0.0020465013 0.78125834
0.045736395 0.0041979607 0.78335428
0.045780666 0.0063500702 0.78411251
0.045787185 0.0084993262 0.78422415
0.045817804 0.0106548 0.78474861
0.045863066 0.012817238 0.78552383
0.04588655 0.014976814 0.78592604
0.045700133 0.017060239 0.7827332
0.045676388 0.019194527 0.78232646
0.04551531 0.021262435 0.7795676
0.045569334 0.023425803 0.7804929
0.04540984 0.025474459 0.77776116
0.045566753 0.027700491 0.78044868
0.045526605 0.029812213 0.77976108
0.045751724 0.032106318 0.78361684
0.045775879 0.034271091 0.78403056
0.045904916 0.036521573 0.78624064
0.045920823 0.03868885 0.78651309
0.045943655 0.040863778 0.7869041
0.045830444 0.042913467 0.7849651
0.045728814 0.044963919 0.7832244
0.045554314 0.046929765 0.78023565
0.045622427 0.049140558 0.78140229
0.045447495 0.051084548 0.77840608
0.045491222 0.053268164 0.77915502
0.045227647 0.055081625 0.77464062
0.045051925 0.056981478 0.77163094
0.044651702 0.058570351 0.76477611
0.04448963 0.060445227 0.7620002
0.044323891 0.062299743 0.75916147
0.044324718 0.064380638 0.75917566
