# .PCD v0.7 - Point Cloud Data file format
VERSION 0.7
FIELDS x y z
SIZE 4 4 4
TYPE F F F
COUNT 1 1 1
WIDTH 169
HEIGHT 1
VIEWPOINT 0 0 0 1 0 0 0
POINTS 169
DATA ascii
0.023297288 0.036046468 0.82464641
0.023518404 0.038669117 0.83247322
0.023688992 0.041246668 0.83851147
0.024052205 0.044211376 0.85136801
0.024513057 0.047435462 0.86768061
0.025104281 0.051013857 0.88860798
0.025456754 0.054198597 0.90108436
0.025706364 0.057222717 0.90991974
0.02556809 0.059394203 0.9050253
0.02470351 0.059781242 0.87442201
0.02344647 0.059012823 0.82992703
0.022908263 0.059879567 0.81087625
0.022708889 0.061560459 0.80381912
0.02589898 0.036529705 0.83570153
0.026359869 0.039509885 0.85057336
0.026805839 0.042547867 0.86496377
0.027264139 0.045685358 0.8797521
0.027671017 0.048813157 0.8928811
0.028142462 0.052132498 0.90809357
0.028460367 0.055237193 0.91835165
0.028808821 0.058460079 0.92959547
0.028996304 0.061403695 0.9356451
nan nan nan
0.027867455 0.063939951 0.89921975
0.025971279 0.061885074 0.83803439
0.025182715 0.062232118 0.81258923
0.028858054 0.037397578 0.85555619
0.029457949 0.040567476 0.87334132
0.029892879 0.043594241 0.88623571
0.030287649 0.046629827 0.8979395
0.03062419 0.049635153 0.9079169
0.031071963 0.052884467 0.92119205
0.031444084 0.056071613 0.93222439
0.031894922 0.05946596 0.94559038
0.032227706 0.062703855 0.95545644
0.032542475 0.065959282 0.96478844
0.032437917 0.068381868 0.96168858
nan nan nan
nan nan nan
0.031829663 0.038150094 0.87277168
0.032273065 0.041105777 0.8849299
0.032617752 0.043994922 0.89438123
0.033057421 0.047071099 0.90643698
0.033437248 0.050123617 0.91685182
0.033929732 0.053410545 0.93035579
0.034400955 0.056736395 0.94327676
0.034994703 0.060344312 0.95955735
0.035483018 0.063851707 0.972947
0.035956684 0.067405 0.98593497
0.036160666 0.070503637 0.99152815
0.035982981 0.072860114 0.98665607
nan nan nan
0.034315418 0.038255811 0.87519026
0.03481428 0.041244362 0.88791341
0.035227373 0.044195019 0.89844906
0.035828702 0.047452707 0.91378552
0.03624557 0.050537225 0.92441744
0.036774114 0.053843509 0.93789756
0.037311867 0.057237778 0.95161259
0.038046915 0.06102363 0.97035944
0.038698912 0.064773187 0.98698813
0.039209828 0.068367861 1.0000187
0.039313138 0.071294725 1.0026536
0.039327208 0.074067958 1.0030124
0.038804516 0.075794727 0.98968154
0.036579635 0.03811688 0.87201184
0.037326906 0.041333195 0.88982582
0.037902486 0.044445787 0.90354693
0.038594164 0.047777276 0.92003566
0.039039772 0.050878409 0.93065834
0.039604414 0.05420066 0.94411874
0.040190462 0.057627346 0.95808935
0.041072559 0.061574396 0.97911739
0.041804232 0.065401331 0.99655956
0.04230744 0.068951488 1.0085554
0.042281892 0.071671076 1.0079464
0.04230487 0.074472763 1.0084941
0.041981999 0.076646022 1.0007973
0.03891379 0.038063385 0.87078804
0.039835963 0.041407425 0.89142382
0.040551607 0.044637192 0.90743804
0.041297995 0.047990426 0.92414021
0.041810665 0.051149249 0.9356125
0.042426284 0.054503184 0.94938838
0.043083064 0.057987995 0.9640854
0.044013247 0.061938077 0.98490041
0.044732712 0.06569276 1.0010002
0.045136701 0.069053009 1.0100404
0.045135062 0.071817361 1.0100037
0.045157615 0.074621506 1.0105084
0.044652764 0.076524548 0.99921113
0.04135615 0.038115799 0.8719871
0.042325631 0.041454088 0.8924284
0.043098457 0.044700418 0.90872335
0.043881405 0.048047103 0.92523164
0.044502512 0.05129768 0.93832755
0.045238223 0.054758742 0.95383996
0.046020404 0.058363721 0.97033203
0.046973534 0.062285732 0.99042863
0.047528338 0.065766685 1.0021266
0.047858842 0.06898839 1.0090952
0.047889605 0.071798883 1.0097438
0.047735598 0.074325256 1.0064967
nan nan nan
0.043954551 0.03829845 0.87616569
0.044998307 0.041665111 0.89697134
0.045709606 0.044819787 0.91115004
0.046453077 0.048085444 0.92596996
0.047159564 0.051391989 0.94005263
0.047999535 0.054928456 0.95679617
0.048902284 0.058631923 0.97479105
0.049845297 0.062484454 0.99358857
0.050343543 0.065858155 1.0035204
0.050548673 0.068886802 1.0076092
0.050455388 0.07151489 1.0057498
0.049601767 0.073013574 0.98873419
nan nan nan
0.046248239 0.038210429 0.874152
0.047669023 0.041852556 0.9010067
0.04853598 0.045126896 0.91739333
0.049251102 0.048341982 0.93091005
0.049878012 0.051539972 0.94275951
0.050671715 0.054983873 0.95776153
0.051605035 0.058668699 0.97540247
0.052581709 0.062501706 0.99386287
0.053021882 0.065770365 1.0021827
0.053138539 0.068666555 1.0043877
0.05230739 0.070300974 0.98867792
nan nan nan
0.043930154 0.063591346 0.83033723
0.047265645 0.037128523 0.84940088
0.049413491 0.041248355 0.88799936
0.051042866 0.045121346 0.9172805
0.05209776 0.048618648 0.93623775
0.052590735 0.051667757 0.94509691
0.053301875 0.054990482 0.95787662
0.054169063 0.058551904 0.97346073
0.055172652 0.062352855 0.99149597
0.055513263 0.065470733 0.99761707
0.054933663 0.067491569 0.98720115
nan nan nan
0.046532113 0.061750993 0.83621871
0.045151886 0.062142186 0.81141496
0.048189726 0.036078267 0.82537389
0.049418982 0.039317332 0.8464281
0.05200664 0.043816224 0.89074844
0.054355897 0.048345905 0.93098557
0.05513645 0.05162717 0.94435453
0.055856656 0.054922357 0.95668995
0.056659974 0.058370747 0.97044885
0.057372209 0.061796408 0.98264772
0.05651179 0.063521199 0.96791083
nan nan nan
0.048776362 0.059403516 0.83542156
0.047559418 0.06015294 0.81457824
0.046920806 0.061546769 0.80364037
0.049748298 0.035575893 0.81388092
0.050256371 0.03819159 0.82219297
0.051260896 0.041252352 0.83862698
0.054189723 0.046037983 0.8865425
0.056393962 0.050438076 0.92260385
0.057903294 0.054383088 0.94729644
0.058923461 0.057982039 0.96398634
nan nan nan
0.054089356 0.058073472 0.88490051
0.050341345 0.056305565 0.82358319
0.049499597 0.057582539 0.80981219
0.049178649 0.059413251 0.8045615
0.048859831 0.061217856 0.79934561
