# .PCD v0.7 - Point Cloud Data file format
VERSION 0.7
FIELDS x y z
SIZE 4 4 4
TYPE F F F
COUNT 1 1 1
WIDTH 900
HEIGHT 1
VIEWPOINT 0 0 0 1 0 0 0
POINTS 900
DATA ascii
-0.054750688 0.12702546 0.84374017
-0.054605268 0.12899332 0.84149915
-0.054548196 0.13116135 0.84061968
-0.054424331 0.13316113 0.83871084
-0.05444466 0.13550936 0.83902413
-0.054412331 0.13772599 0.83852589
-0.054392792 0.13997282 0.83822483
-0.054154452 0.1416457 0.83455181
-0.054181054 0.14400263 0.83496177
-0.053988617 0.14577039 0.8319962
-0.054029167 0.14816082 0.8326211
-0.053804457 0.14981605 0.82915819
-0.053987242 0.15260418 0.83197504
-0.053934522 0.15473208 0.83116257
-0.054082483 0.15743975 0.83344275
-0.053870857 0.15909795 0.83018148
-0.053866252 0.1613584 0.83011049
-0.053663246 0.16301578 0.82698208
-0.053796116 0.1656905 0.82902968
-0.053761486 0.16785346 0.82849598
-0.05400984 0.17090899 0.83232325
-0.053909257 0.17286658 0.83077323
-0.053662181 0.17433974 0.82696563
-0.053122863 0.17483026 0.81865448
-0.052978795 0.17659271 0.81643426
-0.052865092 0.1784455 0.81468207
-0.052978776 0.18106583 0.81643397
-0.052896459 0.18301761 0.8151654
-0.053006075 0.18563461 0.81685466
-0.052747842 0.18695709 0.81287515
-0.052534685 0.12725653 0.84527498
-0.05238444 0.12920155 0.84285754
-0.052367177 0.13146718 0.84257978
-0.052220259 0.13340008 0.84021592
-0.052216008 0.13569079 0.8401475
-0.052059643 0.13757911 0.83763164
-0.051998038 0.13970825 0.83664042
-0.05174312 0.14130405 0.83253884
-0.051807884 0.14376447 0.83358085
-0.051677138 0.14567944 0.83147717
-0.051851738 0.14845715 0.83428645
-0.05162663 0.15008822 0.83066452
-0.051747419 0.15272027 0.83260798
-0.051585697 0.15451676 0.83000588
-0.051731471 0.1572336 0.83235139
-0.051528431 0.15888773 0.82908452
-0.051667228 0.16159306 0.83131772
-0.051465161 0.16322954 0.82806653
-0.051578313 0.16586186 0.82988709
-0.051364549 0.16743848 0.82644767
-0.051579051 0.17041118 0.82989895
-0.051556148 0.17260799 0.82953048
-0.051457629 0.17454627 0.82794529
-0.050990354 0.17520879 0.82042694
-0.05091675 0.17720015 0.81924266
-0.05075508 0.17887467 0.81664139
-0.050796382 0.18125921 0.81730592
-0.050626807 0.18288562 0.81457752
-0.050835278 0.18587939 0.81793177
-0.050589748 0.18721148 0.81398124
-0.050331987 0.12754261 0.8471753
-0.050183374 0.12947997 0.84467387
-0.050129697 0.13165295 0.84377038
-0.04991493 0.13339049 0.84015548
-0.04983313 0.1354697 0.83877867
-0.04975139 0.13754153 0.83740282
-0.049743589 0.13981363 0.83727151
-0.049543813 0.14153659 0.83390898
-0.049515102 0.1437377 0.8334257
-0.049353845 0.14554529 0.83071148
-0.049520545 0.14832029 0.83351731
-0.049277287 0.14986388 0.82942289
-0.049383685 0.15246452 0.83121371
-0.049247496 0.15431486 0.82892144
-0.049497638 0.157381 0.83313173
-0.049321953 0.15909664 0.83017468
-0.049492911 0.1619302 0.83305216
-0.049302779 0.16358149 0.82985193
-0.04941453 0.16623077 0.83173293
-0.04913751 0.16756459 0.82707018
-0.049229488 0.17014821 0.82861829
-0.049152322 0.17214793 0.8273195
-0.049053021 0.17406197 0.82564807
-0.048758414 0.17526482 0.82068932
-0.048710763 0.17733958 0.81988728
-0.048568565 0.17906138 0.81749386
-0.048537657 0.1811855 0.81697357
-0.048366666 0.18277739 0.8140955
-0.048550315 0.18571006 0.81718665
-0.048268221 0.18685667 0.81243855
-0.047933858 0.1273372 0.84581089
-0.047757708 0.12917781 0.84270269
-0.047741398 0.13144144 0.84241486
-0.047625832 0.13342544 0.84037566
-0.047652937 0.13580488 0.84085393
-0.047527459 0.13774471 0.83863986
-0.047544092 0.14009114 0.83893335
-0.047279779 0.14159778 0.83426946
-0.047186531 0.14359944 0.83262402
-0.046988655 0.14526863 0.82913244
-0.047233086 0.1483075 0.83344549
-0.047085632 0.15012059 0.83084363
-0.047210813 0.15280181 0.83305252
-0.047076471 0.15464261 0.83068198
-0.047256798 0.15751931 0.83386391
-0.047045529 0.15908924 0.830136
-0.047084127 0.16149575 0.8308171
-0.046936419 0.16325797 0.82821071
-0.047028668 0.16585214 0.82983851
-0.046840843 0.16745399 0.82652426
-0.046885759 0.16988096 0.82731682
-0.046893544 0.17217596 0.82745415
-0.046796359 0.17408121 0.82573932
-0.046566907 0.17547864 0.82169056
-0.046531759 0.17759548 0.82107037
-0.046416238 0.17939828 0.81903195
-0.046324108 0.18128146 0.81740624
-0.046084356 0.18257089 0.81317574
-0.046151835 0.18506916 0.81436646
-0.045930404 0.18640143 0.8104592
-0.045634534 0.12738672 0.84613985
-0.045419782 0.1290943 0.84215796
-0.045337837 0.1311643 0.84063858
-0.045220617 0.13312212 0.83846515
-0.045298167 0.13565131 0.83990306
-0.045259815 0.13783538 0.83919191
-0.045321018 0.14032382 0.84032673
-0.045123078 0.14200294 0.83665663
-0.044981956 0.14384365 0.83403999
-0.044765349 0.1454248 0.83002371
-0.044884186 0.14809072 0.83222717
-0.044812661 0.15013094 0.83090097
-0.04492791 0.15279911 0.83303785
-0.044824649 0.15472476 0.83112323
-0.044951603 0.15744627 0.8334772
-0.044767905 0.15907679 0.83007109
-0.044794068 0.16144504 0.83055621
-0.044676121 0.16328922 0.82836926
-0.044803936 0.16603217 0.8307392
-0.044665676 0.16778855 0.8281756
-0.044652391 0.17000672 0.82792926
-0.044564042 0.17193395 0.82629114
-0.044395879 0.1735402 0.82317311
-0.044127993 0.1747345 0.81820607
-0.04407645 0.17676923 0.81725037
-0.044086613 0.17904934 0.81743884
-0.044031918 0.18106377 0.81642467
-0.043841921 0.18250939 0.81290179
-0.043818112 0.18463598 0.81246036
-0.043670651 0.18623284 0.80972618
-0.043220963 0.12710558 0.84427238
-0.042997945 0.12875062 0.83991593
-0.042963497 0.13094656 0.83924305
-0.042939719 0.13317189 0.83877856
-0.043014321 0.13570505 0.84023583
-0.042932756 0.13774516 0.83864254
-0.04286861 0.13983335 0.83738959
-0.04273447 0.14168261 0.83476931
-0.042701375 0.14385793 0.83412278
-0.042532377 0.14556459 0.83082163
-0.042626563 0.148168 0.83266145
-0.042611085 0.15039439 0.83235908
-0.042702738 0.15300301 0.83414942
-0.042620767 0.15499003 0.8325482
-0.042639662 0.1573405 0.83291733
-0.042498831 0.15909505 0.83016634
-0.042536963 0.16151404 0.83091122
-0.04240967 0.16330014 0.82842469
-0.042546514 0.16610382 0.83109778
-0.042365223 0.16766311 0.82755643
-0.042381939 0.16999722 0.82788295
-0.042281795 0.17185813 0.82592678
-0.042200647 0.17378655 0.82434165
-0.041888665 0.17474334 0.81824744
-0.04182509 0.17671628 0.81700557
-0.041774772 0.17873915 0.81602269
-0.041783031 0.1810104 0.81618398
-0.041607738 0.18247752 0.81275982
-0.041628189 0.18479483 0.81315935
-0.04153486 0.18660314 0.81133622
-0.040953688 0.12724718 0.845213
-0.040828761 0.12916739 0.84263474
-0.04077157 0.1312916 0.84145445
-0.040706124 0.13338228 0.84010369
-0.040708851 0.13569281 0.84016001
-0.040610652 0.13766152 0.83813334
-0.040485252 0.13952538 0.8355453
-0.040397026 0.14150527 0.83372444
-0.040427487 0.14389765 0.83435315
-0.040314212 0.14577374 0.83201534
-0.040364191 0.14823656 0.83304679
-0.040346939 0.15045433 0.83269078
-0.040412068 0.15298201 0.83403492
-0.040332083 0.1549595 0.83238417
-0.040349718 0.15730853 0.83274812
-0.040292449 0.15936333 0.83156621
-0.040362369 0.16192186 0.83300924
-0.040241934 0.1637139 0.83052367
-0.040365752 0.16649981 0.83307904
-0.040165402 0.16794425 0.82894415
-0.040189657 0.17031792 0.82944477
-0.040018369 0.17185459 0.82590967
-0.040028919 0.17416303 0.82612741
-0.039710369 0.17502217 0.81955308
-0.039656378 0.17702629 0.81843883
-0.039576821 0.17890872 0.8167969
-0.039652128 0.18149099 0.81835103
-0.039531343 0.18317318 0.8158583
-0.039544176 0.18546836 0.81612313
-0.039465684 0.18733153 0.81450319
-0.038629185 0.12721731 0.84501451
-0.03855608 0.12928705 0.84341532
-0.038536131 0.13152945 0.84297889
-0.03849528 0.13369688 0.8420853
-0.038459469 0.13587724 0.84130192
-0.038281869 0.13754384 0.83741689
-0.038141578 0.13932545 0.83434808
-0.038109113 0.14149058 0.83363789
-0.038238842 0.14426371 0.83647567
-0.038176063 0.14631462 0.83510244
-0.038160205 0.14854062 0.83475548
-0.038085662 0.15053277 0.83312488
-0.03814451 0.1530512 0.83441216
-0.038115516 0.15521897 0.83377796
-0.03810069 0.15744179 0.8334536
-0.038061336 0.15956004 0.83259273
-0.038135514 0.16215631 0.8342154
-0.038051814 0.16408071 0.83238447
-0.038098019 0.16656299 0.83339518
-0.037889369 0.16792132 0.82883096
-0.037862994 0.1700734 0.82825404
-0.037715793 0.17167236 0.82503396
-0.037800144 0.17432152 0.8268792
-0.037558414 0.17545745 0.82159132
-0.037530378 0.1775755 0.82097799
-0.037411407 0.1792545 0.81837553
-0.037552308 0.18217999 0.82145774
-0.037446614 0.18391125 0.81914574
-0.03747303 0.18628658 0.81972355
-0.037364848 0.18798791 0.81735706
-0.036315709 0.12722224 0.84504724
-0.036265068 0.12935658 0.84386891
-0.036262434 0.13165875 0.84380758
-0.03619317 0.13371444 0.84219587
-0.036190767 0.13601258 0.84213996
-0.036005486 0.13761145 0.83782852
-0.035930414 0.13961494 0.83608162
-0.035882883 0.14171763 0.8349756
-0.036020745 0.14455828 0.83818364
-0.035993293 0.14674254 0.83754486
-0.035990529 0.14902551 0.83748049
-0.035849184 0.1507255 0.8341915
-0.035871718 0.1531069 0.83471584
-0.035909686 0.15555805 0.83559936
-0.036076561 0.15858066 0.83948243
-0.036215972 0.16150211 0.84272647
-0.036322847 0.16429412 0.84521335
-0.036256932 0.1663072 0.84367955
-0.036106199 0.16791743 0.84017211
-0.03581591 0.1688505 0.83341718
-0.035635058 0.17026947 0.82920885
-0.035371039 0.17126273 0.82306528
-0.035363916 0.17348252 0.82289952
-0.035259068 0.1752158 0.82045978
-0.035329279 0.17781679 0.82209355
-0.035263307 0.17973264 0.82055843
-0.035373475 0.18254907 0.82312196
-0.035317436 0.18451121 0.82181799
-0.035318471 0.18676803 0.82184207
-0.035111014 0.18790916 0.81701469
-0.034004424 0.12723604 0.84513897
-0.033918504 0.12922393 0.84300351
-0.033941992 0.13162439 0.84358728
-0.033904579 0.13378774 0.84265751
-0.033933036 0.13621041 0.84336478
-0.033757407 0.13780381 0.83899969
-0.033720829 0.13995041 0.8380906
-0.033661835 0.14199747 0.83662438
-0.03378142 0.14480196 0.83959651
-0.033714831 0.14681204 0.83794153
-0.033701632 0.14904918 0.83761346
-0.03355445 0.15068285 0.83395547
-0.033704426 0.15365113 0.8376829
-0.033976246 0.15720361 0.84443867
-0.034632873 0.16259974 0.8607583
-0.03520583 0.16768678 0.87499845
-0.03556158 0.17180248 0.8838402
-0.03539075 0.1733868 0.87959445
-0.034691356 0.1723223 0.86221182
-0.033962503 0.17101425 0.84409708
-0.033520248 0.17106959 0.83310539
-0.033182342 0.17160435 0.82470709
-0.03308123 0.17333381 0.8221941
-0.032989603 0.17509985 0.81991684
-0.033025235 0.17753753 0.82080239
-0.032960664 0.17943457 0.8191976
-0.033047091 0.18215512 0.82134563
-0.0330384 0.18435667 0.82112962
-0.033078831 0.18683448 0.82213449
-0.032851562 0.18778756 0.816486
-0.031675924 0.12718275 0.84478503
-0.031617191 0.1292569 0.84321862
-0.031668838 0.13178177 0.84459603
-0.031642076 0.1339822 0.84388232
-0.031703133 0.13655698 0.84551066
-0.03155921 0.13824278 0.8416723
-0.031525053 0.14039639 0.8407613
-0.031388849 0.14208309 0.83712888
-0.031420309 0.14452107 0.83796787
-0.031357829 0.14652471 0.83630157
-0.031524405 0.14960626 0.84074408
-0.031567644 0.15211779 0.84189719
-0.031932607 0.15620948 0.85163063
-0.032606021 0.16188593 0.86959034
-0.033694699 0.16975287 0.89862496
-0.034363639 0.17563361 0.9164654
-0.034759238 0.18019503 0.92701584
-0.034594309 0.1818675 0.9226172
-0.03380904 0.18020932 0.90167439
-0.032672767 0.17653984 0.87137043
-0.03193529 0.17488824 0.85170215
-0.031401616 0.1742599 0.83746934
-0.031149523 0.17513673 0.83074611
-0.030926974 0.176145 0.8248108
-0.030833315 0.17786425 0.82231295
-0.030715363 0.17942791 0.8191672
-0.030793559 0.18213449 0.82125264
-0.030811565 0.18449211 0.82173288
-0.030852731 0.18699272 0.8228308
-0.030588513 0.18762614 0.81578416
-0.029378803 0.12725697 0.84527797
-0.029345462 0.12942553 0.84431869
-0.029371759 0.13185656 0.84507531
-0.029315002 0.13391234 0.84344232
-0.029345002 0.13636233 0.84430546
-0.029259315 0.13827035 0.84184009
-0.029278005 0.14066632 0.84237784
-0.029173009 0.14246126 0.8393569
-0.029209021 0.14493933 0.84039307
-0.029191311 0.14715229 0.83988351
-0.029519031 0.15113097 0.84931254
-0.030062251 0.15628161 0.8649419
-0.030920498 0.16318043 0.88963515
-0.031619973 0.16936409 0.90976024
-0.032303013 0.17556871 0.92941248
-0.032359511 0.17842633 0.93103796
-0.03251411 0.18184149 0.93548602
-0.032400128 0.18375778 0.93220663
-0.032127753 0.18474525 0.92436987
-0.03141949 0.18314895 0.90399194
-0.030869374 0.18237534 0.88816422
-0.030355552 0.18173231 0.87338072
-0.029872807 0.18119675 0.85949129
-0.029209636 0.1794765 0.84041077
-0.028782062 0.17911787 0.82810873
-0.028525779 0.17977132 0.82073504
-0.028561657 0.18224864 0.82176727
-0.028539771 0.18435846 0.82113761
-0.028577261 0.18685305 0.82221621
-0.028372357 0.18774956 0.81632078
-0.027067034 0.12727502 0.84539783
-0.027069885 0.12960461 0.84548694
-0.027081234 0.1319761 0.84584141
-0.026997268 0.13387685 0.8432188
-0.026966298 0.13603061 0.84225154
-0.026921295 0.13810705 0.84084588
-0.026943188 0.1405247 0.84152973
-0.026908698 0.14264719 0.84045243
-0.027007176 0.14548005 0.84352827
-0.027180109 0.14873721 0.84892958
-0.028001882 0.15563011 0.87459642
-0.028850386 0.16281448 0.90109813
-0.029547323 0.16927575 0.92286593
-0.029739769 0.17292288 0.9288767
-0.029829629 0.17599767 0.9316833
-0.029710893 0.17783928 0.92797476
-0.029790565 0.18086515 0.93046325
-0.029720981 0.18298571 0.92828989
-0.029699784 0.18539639 0.9276278
-0.029403243 0.18606111 0.91836584
-0.029261323 0.18766673 0.91393316
-0.029077062 0.18897291 0.90817803
-0.02870803 0.1890309 0.89665186
-0.027973223 0.18658596 0.87370133
-0.027141605 0.18336123 0.84772694
-0.026573425 0.18179648 0.82998073
-0.026422208 0.18302274 0.82525772
-0.026303705 0.1844525 0.82155645
-0.026303995 0.18670517 0.82156551
-0.026155135 0.18788648 0.81691605
-0.024778962 0.12741829 0.84634954
-0.024774972 0.12971595 0.84621328
-0.024786914 0.13209775 0.84662116
-0.024699477 0.13394287 0.84363467
-0.024668859 0.13608508 0.84258884
-0.024644867 0.13825873 0.8417694
-0.024731584 0.14105932 0.84473127
-0.024805024 0.14379919 0.84723973
-0.025053494 0.14758383 0.85572642
-0.025529331 0.15277562 0.87197912
-0.026300918 0.15985399 0.89833343
-0.026806409 0.16543455 0.91559893
-0.026986547 0.16907138 0.92175174
-0.027076619 0.17216921 0.92482823
-0.02711153 0.17492799 0.92602068
-0.026971534 0.17654842 0.92123896
-0.027023807 0.17941917 0.92302442
-0.026986495 0.18169653 0.92174995
-0.027056048 0.18469644 0.92412561
-0.026823521 0.18561895 0.91618341
-0.026744829 0.1875769 0.91349566
-0.026537059 0.18860273 0.90639901
-0.02644871 0.19044961 0.90338141
-0.02610187 0.19039443 0.89153475
-0.025515815 0.18850707 0.87151748
-0.024726251 0.18498749 0.84454912
-0.024301853 0.18408629 0.83005339
-0.024071701 0.18459526 0.82219231
-0.024021963 0.18646155 0.82049346
-0.023932124 0.18800351 0.81742495
-0.022439977 0.12730233 0.84557927
-0.022474406 0.12981763 0.84687662
-0.022504667 0.13231553 0.84801686
-0.022438286 0.13424151 0.84551555
-0.022415595 0.13641968 0.84466052
-0.022417884 0.13874775 0.84474677
-0.022578435 0.14207214 0.85079658
-0.022819936 0.14594741 0.85989678
-0.023305254 0.15145709 0.8781845
-0.023717012 0.15658128 0.8937003
-0.024159117 0.161994 0.91035956
-0.024219941 0.164902 0.91265154
-0.024346789 0.16827892 0.91743141
-0.024411321 0.17124487 0.91986305
-0.024438825 0.17396058 0.92089945
-0.024335641 0.17573823 0.91701132
-0.02435299 0.17837742 0.91766506
-0.024273319 0.18029955 0.91466296
-0.024308966 0.18307368 0.91600621
-0.024169009 0.18451457 0.91073233
-0.024103986 0.18650636 0.90828216
-0.023890039 0.18731706 0.90022022
-0.023765335 0.18879253 0.89552116
-0.023562869 0.18961647 0.88789189
-0.023436982 0.19102278 0.88314825
-0.022958063 0.18948925 0.86510164
-0.022357367 0.18683921 0.84246635
-0.021932339 0.1855513 0.82645053
-0.021815086 0.18681124 0.82203221
-0.021724319 0.18827651 0.81861192
-0.020103607 0.1271762 0.84474146
-0.020147946 0.12977593 0.84660453
-0.020187277 0.13235304 0.84825724
-0.020135093 0.13432866 0.84606451
-0.020159369 0.13681118 0.84708458
-0.020207431 0.13946342 0.84910405
-0.020575091 0.14436927 0.86455292
-0.020941297 0.14934939 0.87994063
-0.021360978 0.15480137 0.89757544
-0.021475373 0.15810241 0.90238219
-0.021650907 0.16188695 0.90975803
-0.021658679 0.16443822 0.91008466
-0.02174696 0.16761176 0.91379416
-0.021685936 0.16963771 0.91122997
-0.021723144 0.17242932 0.9127934
-0.021649549 0.17433725 0.90970099
-0.02164501 0.17679226 0.90951025
-0.021560581 0.17858453 0.90596265
-0.021608209 0.18146636 0.90796393
-0.021551548 0.18347131 0.90558302
-0.021510823 0.18560074 0.90387183
-0.021293022 0.18617254 0.8947199
-0.021180997 0.18763125 0.89001274
-0.021037918 0.18878545 0.8840006
-0.021019077 0.1910359 0.88320893
-0.020813907 0.19156708 0.87458783
-0.020420773 0.19029941 0.85806859
-0.01988933 0.18763641 0.83573765
-0.01966718 0.18780454 0.82640302
-0.019513911 0.18858719 0.81996274
-0.01779267 0.12719908 0.84489346
-0.017840244 0.12985992 0.84715247
-0.01786758 0.1323832 0.8484506
-0.017829919 0.13442357 0.84666228
-0.017849162 0.13689056 0.84757602
-0.017899636 0.13960612 0.84997278
-0.018232614 0.14457493 0.86578441
-0.018443033 0.1486426 0.87577629
-0.01878548 0.15384626 0.89203751
-0.018902559 0.15726402 0.89759707
-0.019087395 0.16128479 0.90637404
-0.019092506 0.16381162 0.90661681
-0.019132838 0.16664654 0.9085319
-0.01909662 0.16881527 0.90681213
-0.019139288 0.17168218 0.90883827
-0.019103656 0.17384766 0.90714622
-0.019034913 0.17569824 0.90388197
-0.018935742 0.17724609 0.89917272
-0.01895543 0.17989619 0.90010768
-0.018955095 0.18235879 0.90009177
-0.018908957 0.18437468 0.89790088
-0.018749109 0.18525502 0.89031041
-0.018662635 0.18682832 0.88620412
-0.018589102 0.18851034 0.88271236
-0.018570228 0.19073465 0.88181615
-0.018401641 0.19139688 0.87381077
-0.018237535 0.19206241 0.86601806
-0.017815309 0.18993339 0.84596848
-0.01750694 0.18892317 0.83132541
-0.017312652 0.18907864 0.82209951
-0.015507083 0.12743711 0.84647459
-0.015523429 0.12989278 0.84736687
-0.015532274 0.13228944 0.84784967
-0.015497429 0.13431011 0.84594762
-0.015540767 0.13700962 0.84831327
-0.015598153 0.13984805 0.85144573
-0.015815752 0.14416401 0.86332363
-0.015916398 0.14746152 0.86881757
-0.016184697 0.15236744 0.88346303
-0.016307658 0.15596364 0.89017504
-0.016452007 0.15980436 0.89805448
-0.016465208 0.16239475 0.8987751
-0.016512483 0.16533025 0.90135568
-0.01650263 0.16769935 0.90081787
-0.016554255 0.17069943 0.90363586
-0.016527364 0.17289361 0.90216798
-0.016480867 0.1748717 0.89962983
-0.016399665 0.17646246 0.89519733
-0.016415006 0.17908217 0.89603472
-0.016395332 0.18131925 0.89496082
-0.016369401 0.18348029 0.89354527
-0.016253905 0.18461633 0.88724089
-0.01622388 0.18670134 0.88560182
-0.01614747 0.18823668 0.88143092
-0.016112911 0.19024329 0.8795445
-0.015923182 0.19038428 0.86918783
-0.015841162 0.19177248 0.86471069
-0.015616226 0.19138461 0.85243231
-0.015295346 0.1897393 0.83491665
-0.015066213 0.18914984 0.82240909
-0.013202158 0.12757201 0.84737056
-0.013206961 0.1299406 0.84767884
-0.013217497 0.13236831 0.84835511
-0.013199503 0.13450897 0.84720016
-0.013245644 0.13730817 0.85016173
-0.013299963 0.14020978 0.85364813
-0.013408483 0.14371143 0.86061341
-0.013468745 0.14672552 0.86448127
-0.013649171 0.15109098 0.8760618
-0.013779374 0.1549551 0.88441873
-0.013867256 0.15838167 0.89005941
-0.013888177 0.16106258 0.89140218
-0.01393249 0.16402623 0.8942464
-0.013937291 0.16653335 0.89455456
-0.013971219 0.16939531 0.89673221
-0.013953343 0.17163201 0.89558482
-0.013936383 0.17387383 0.89449626
-0.01387203 0.17551006 0.89036584
-0.013868922 0.17790931 0.89016634
-0.01382901 0.17982888 0.88760459
-0.01382249 0.18217452 0.88718617
-0.013736704 0.18345924 0.88168007
-0.013713315 0.18555807 0.88017881
-0.01362926 0.18681712 0.87478375
-0.013623789 0.18913762 0.87443268
-0.013492909 0.18969309 0.86603224
-0.013427774 0.1911384 0.86185163
-0.013256982 0.19103822 0.85088944
-0.013027395 0.1900204 0.83615357
-0.012820775 0.18926086 0.82289177
-0.010863064 0.12736385 0.84598792
-0.010871666 0.12978409 0.84665781
-0.010890169 0.13232832 0.84809881
-0.010877786 0.13449854 0.84713447
-0.010925102 0.13741437 0.85081929
-0.010981863 0.14047121 0.85523975
-0.011050284 0.14370386 0.86056811
-0.011073536 0.14636871 0.86237895
-0.011158122 0.14986725 0.86896628
-0.011254317 0.15356028 0.87645769
-0.011329507 0.15700331 0.88231337
-0.01136254 0.15988517 0.88488579
-0.011397993 0.16281572 0.88764685
-0.011392678 0.16517033 0.8872329
-0.011402246 0.16774163 0.88797802
-0.011393886 0.17004946 0.88732702
-0.011420498 0.17288309 0.88939941
-0.011398965 0.174989 0.88772249
-0.011398203 0.17740904 0.88766319
-0.011326496 0.17870934 0.88207877
-0.01132738 0.18113993 0.88214773
-0.011255253 0.18238775 0.87653065
-0.011251512 0.18472753 0.87623924
-0.011167307 0.18572754 0.86968166
-0.011176988 0.18827306 0.8704356
-0.011078323 0.18897454 0.86275178
-0.011033509 0.19056402 0.85926175
-0.010880711 0.1902463 0.84736222
-0.01076448 0.19051054 0.83831042
-0.010589647 0.18967555 0.82469487
-0.0085393777 0.12727243 0.8453806
-0.0085310787 0.12946236 0.84455901
-0.0085481498 0.1320397 0.84624904
-0.0085358955 0.13416535 0.84503591
-0.0085690832 0.13701093 0.84832138
-0.0085939355 0.13973899 0.85078174
-0.008651467 0.14302073 0.8564772
-0.008678305 0.14581798 0.85913414
-0.0087169353 0.1488311 0.86295843
-0.0087668141 0.1520603 0.86789638
-0.0088505223 0.1559125 0.87618333
-0.0088764699 0.15877689 0.87875205
-0.0089199869 0.16197442 0.88306016
-0.0088974088 0.1639774 0.88082492
-0.0089249806 0.16690601 0.88355452
-0.0089009032 0.16886967 0.88117087
-0.0089306291 0.17185563 0.88411367
-0.0088984286 0.17364925 0.88092589
-0.0089112157 0.17631552 0.88219184
-0.0088493675 0.17749175 0.87606895
-0.0088548427 0.18000302 0.87661099
-0.0087987063 0.1812481 0.87105364
-0.0087941755 0.18353975 0.87060511
-0.0087375622 0.18472783 0.86500049
-0.0087335417 0.18701136 0.86460245
-0.0086645195 0.18788321 0.85776937
-0.0086209122 0.18927565 0.85345238
-0.008509703 0.18914184 0.84244293
-0.0084618917 0.19037402 0.83770967
-0.0083438596 0.18998143 0.82602477
-0.0062101134 0.12699889 0.84356368
-0.0061943019 0.12898055 0.84141582
-0.006206579 0.13154578 0.84308356
-0.006194558 0.13359612 0.84145063
-0.0062122275 0.1362889 0.84385079
-0.0062198136 0.13876985 0.8448813
-0.0062599722 0.1419953 0.85033631
-0.0062901508 0.14502053 0.85443568
-0.0063322918 0.14834847 0.86015999
-0.0063503701 0.15113509 0.8626157
-0.0064123203 0.15499564 0.87103081
-0.0064208051 0.15759003 0.87218338
-0.0064428113 0.16052766 0.87517267
-0.0064358287 0.16274858 0.87422413
-0.0064684278 0.16597997 0.87865233
-0.0064479606 0.16785422 0.87587214
-0.0064676572 0.1707737 0.87854761
-0.0064464449 0.17261246 0.8756662
-0.0064754928 0.17579992 0.87961203
-0.0064284755 0.17691563 0.87322533
-0.0064281519 0.17929877 0.87318134
-0.0063874377 0.18054006 0.86765087
-0.0063954098 0.18314524 0.86873376
-0.0063570244 0.18441157 0.86351961
-0.0063364003 0.18617119 0.86071807
-0.0062739607 0.1866713 0.85223645
-0.0062505566 0.18830092 0.84905732
-0.0061872094 0.18869495 0.84045243
-0.0061662989 0.19035183 0.83761203
-0.0060918569 0.19032073 0.82750005
-0.00389278 0.12678967 0.84217405
-0.0038784673 0.12862211 0.83907759
-0.0038847204 0.13113181 0.84043038
-0.003877162 0.13317452 0.83879519
-0.0038889113 0.13588291 0.84133708
-0.0038862419 0.13809288 0.84075958
-0.003901995 0.14096521 0.84416765
-0.0039184801 0.14388308 0.84773409
-0.0039613466 0.14780484 0.85700792
-0.0039732172 0.15060252 0.85957599
-0.004013821 0.15452044 0.86836034
-0.0040165191 0.15700474 0.86894405
-0.0040283655 0.15985528 0.87150693
-0.0040264856 0.16216701 0.87110025
-0.0040429579 0.16522655 0.87466395
-0.0040266574 0.16694684 0.87113744
-0.0040291352 0.1694375 0.87167352
-0.0040164124 0.17128283 0.86892098
-0.0040302332 0.17426078 0.87191099
-0.0040104869 0.17578386 0.86763906
-0.0040134317 0.17829153 0.86827612
-0.0039948071 0.17983174 0.86424685
-0.0039970148 0.18230002 0.86472452
-0.0039711506 0.1834739 0.85912889
-0.0039562536 0.18513036 0.85590607
-0.0039228848 0.18589383 0.84868699
-0.0039033273 0.18728042 0.84445584
-0.0038693419 0.18794303 0.83710337
-0.0038582559 0.1896912 0.834705
-0.0038275761 0.19045128 0.82806766
-0.0015824422 0.12653108 0.84045643
-0.0015781651 0.12848526 0.83818477
-0.0015819484 0.13109496 0.84019417
-0.0015775592 0.13302651 0.83786297
-0.0015798594 0.13551913 0.83908468
-0.0015775147 0.13761324 0.83783937
-0.0015834635 0.14043605 0.84099889
-0.0015910717 0.14342576 0.84503967
-0.001607758 0.14726917 0.85390198
-0.0016126973 0.15006801 0.8565253
-0.0016209744 0.15319671 0.86092138
-0.0016237327 0.15581988 0.86238641
-0.001632065 0.15899408 0.86681181
-0.001633639 0.16152428 0.86764771
-0.0016366813 0.1642064 0.86926353
-0.0016289316 0.16579893 0.86514759
-0.0016296344 0.16824153 0.86552083
-0.0016277059 0.17041068 0.86449659
-0.0016333375 0.17337672 0.86748761
-0.0016274675 0.17512153 0.86436993
-0.0016279299 0.17753987 0.86461556
-0.001619705 0.1789995 0.86024719
-0.0016205144 0.18144675 0.86067712
-0.001610905 0.1827146 0.85557342
-0.0016078294 0.18470508 0.85393989
-0.0015942486 0.18546452 0.84672695
-0.0015872143 0.18695554 0.84299093
-0.0015747352 0.18777683 0.83636314
-0.0015718124 0.18971524 0.83481079
-0.001563423 0.19097736 0.83035505
0.00071742607 0.12608641 0.83750284
0.00071676535 0.12826249 0.83673149
0.00071851496 0.13087337 0.83877397
0.00071657985 0.13281249 0.83651495
0.00071738602 0.1352561 0.83745605
0.00071590277 0.13726589 0.83572459
0.00071824377 0.14001165 0.83845735
0.0007203233 0.1427206 0.84088492
0.00072614074 0.14619541 0.8476761
0.00072853663 0.14900762 0.85047299
0.00073271425 0.15220527 0.85534978
0.0007345177 0.15492886 0.85745507
0.00073939434 0.15832204 0.86314797
0.00073793012 0.1603684 0.86143869
0.00073916937 0.16300154 0.8628853
0.00073659007 0.16478835 0.85987431
0.00073916127 0.1677274 0.86287588
0.00073839404 0.16991465 0.8619802
0.00073847431 0.17229474 0.8620739
0.00073583261 0.17403157 0.85899007
0.00073554384 0.17631553 0.85865301
0.00073289592 0.17802458 0.85556185
0.00073203776 0.18015715 0.85456008
0.00072837679 0.18158551 0.85028636
0.0007274698 0.18368581 0.84922755
0.00072229863 0.18469 0.84319091
0.00071887794 0.1861143 0.8391977
0.00071494159 0.18738155 0.83460253
0.0007142555 0.18948589 0.83380157
0.00071214041 0.19120218 0.8313325
0.0030053547 0.12581939 0.83572906
0.0030033418 0.12802303 0.83516937
0.0030144851 0.13079444 0.8382681
0.0030088457 0.13284186 0.8366999
0.0030118846 0.13527045 0.83754492
0.0030047218 0.13723771 0.83555311
0.0030122369 0.13987565 0.83764291
0.0030144453 0.14227457 0.83825701
0.0030320405 0.1454148 0.8431499
0.0030432087 0.1482687 0.84625554
0.003067167 0.15177251 0.85291785
0.0030691563 0.154209 0.85347104
0.0030882542 0.15752117 0.85878181
0.0030821562 0.15955809 0.85708606
0.0030933896 0.16249613 0.86020982
0.0030779652 0.16403066 0.85592061
0.003094651 0.16727735 0.8605606
0.0030885623 0.16930106 0.85886747
0.0030937972 0.17194484 0.86032319
0.0030772667 0.17337035 0.85572636
0.0030746318 0.17556411 0.85499364
0.0030582182 0.17695661 0.85042936
0.0030545171 0.17906936 0.84940016
0.0030425282 0.18068428 0.8460663
0.0030386667 0.18276978 0.84499246
0.0030149214 0.18363829 0.8383894
0.0030079784 0.18550684 0.83645868
0.0029954198 0.18701421 0.83296639
0.0030001393 0.18959433 0.83427876
0.0029880151 0.19110438 0.83090729
0.0052842805 0.12556934 0.8340683
0.0052834493 0.12783414 0.83393711
0.0053061908 0.13067873 0.83752656
0.0053053219 0.13295132 0.83738941
0.0053147241 0.13548502 0.83887345
0.0052932822 0.13722721 0.83548909
0.005299496 0.13967977 0.83646989
0.0052943076 0.14183226 0.83565098
0.005323757 0.14492317 0.84029925
0.0053400584 0.14767593 0.84287226
0.0053903339 0.15139702 0.85080767
0.0053948038 0.15385525 0.85151321
0.0054163821 0.15681267 0.85491914
0.0053932983 0.1584764 0.85127562
0.0054104431 0.16131963 0.85398173
0.0053962418 0.16322951 0.85174018
0.0054283771 0.16654877 0.85681242
0.0054179812 0.16857253 0.85517156
0.005431666 0.17134692 0.85733151
0.005400118 0.1726867 0.85235202
0.005396185 0.17489421 0.85173124
0.0053671575 0.17627415 0.84714955
0.0053631905 0.17846288 0.8465234
0.005338273 0.17994198 0.84259045
0.0053329989 0.18207017 0.84175795
0.0053014844 0.18328659 0.83678377
0.0052900272 0.18517788 0.83497536
0.0052624014 0.18648626 0.83061486
0.0052729268 0.18913925 0.83227623
0.0052587818 0.19090573 0.83004355
0.0075801834 0.12575191 0.8352809
0.0075795073 0.12802871 0.83520639
0.00760685 0.13078682 0.83821934
0.0076084849 0.1331117 0.83839953
0.0076233204 0.13567251 0.84003431
0.0075979005 0.13751367 0.83723319
0.0076027676 0.1398968 0.83776951
0.0075856992 0.1418726 0.83588868
0.0076128715 0.14467888 0.83888286
0.0076172808 0.14706209 0.83936876
0.0076691196 0.150378 0.84508103
0.0076813381 0.15293632 0.84642738
0.0077299378 0.15623738 0.85178274
0.0077115884 0.15819439 0.84976077
0.0077201603 0.16070071 0.85070533
0.0076924013 0.16244498 0.84764647
0.0077150255 0.16525167 0.8501395
0.007705261 0.1673685 0.84906352
0.0077410727 0.17048316 0.8530097
0.0076995776 0.17189357 0.84843725
0.0076984214 0.17419167 0.84830987
0.0076439506 0.17526664 0.84230757
0.0076494459 0.17770176 0.84291309
0.007615204 0.17920509 0.83913988
0.0076256287 0.18175235 0.84028864
0.0075916038 0.18323305 0.83653933
0.0075852722 0.18537 0.83584166
0.0075333081 0.18637416 0.83011556
0.0075454568 0.18895245 0.83145428
0.0075176735 0.19052605 0.82839274
0.0098981829 0.12613137 0.83780146
0.009872186 0.1280892 0.83560103
0.009897043 0.13070656 0.83770496
0.0098956777 0.13298309 0.83758944
0.0099266153 0.13570057 0.84020805
0.0098982044 0.13760731 0.83780324
0.009905017 0.13999872 0.83837992
0.0098827435 0.14197545 0.83649462
0.0098991767 0.14450687 0.83788556
0.0098799244 0.14651673 0.83625603
0.0099079004 0.149229 0.838624
0.0099086352 0.15153761 0.83868617
0.0099773249 0.15490158 0.84450018
0.0099768844 0.15720813 0.84446293
0.010002924 0.15993784 0.84666699
0.0099752294 0.16180803 0.8443228
0.010010814 0.1647065 0.8473348
0.0099975793 0.16680692 0.84621459
0.010018883 0.16948548 0.84801781
0.0099821081 0.17117794 0.84490502
0.0099836877 0.17351998 0.84503877
0.0099237859 0.17477994 0.83996856
0.0099381721 0.17733771 0.84118623
0.0098938216 0.17884043 0.83743232
0.0099214585 0.18164051 0.83977157
0.0098815747 0.18320158 0.83639568
0.0098622888 0.18513085 0.83476335
0.0097813001 0.18587859 0.82790828
0.0097908946 0.18833116 0.82872039
0.009764228 0.19008227 0.82646322
0.012209681 0.12630074 0.83892643
0.012159093 0.12806612 0.83545053
0.012181925 0.13059957 0.83701926
0.012168678 0.13274805 0.8361091
0.012216023 0.13556395 0.8393622
0.012199467 0.13767651 0.83822465
0.012216877 0.14017254 0.83942086
0.012185822 0.14210995 0.83728707
0.012180149 0.14433643 0.83689725
0.012147325 0.14623393 0.83464193
0.01217485 0.14885697 0.83653325
0.012184151 0.15126409 0.83717233
0.012241626 0.15428182 0.84112138
0.012224277 0.15636413 0.83992928
0.012251595 0.15901966 0.84180635
0.012228579 0.16102269 0.84022492
0.012293157 0.16418695 0.84466207
0.012269991 0.16618711 0.84307033
0.012284888 0.16870125 0.84409392
0.012246771 0.17048299 0.84147489
0.012269259 0.17310546 0.84302008
0.012208045 0.17453969 0.83881396
0.01221676 0.17696384 0.83941281
0.012163708 0.17848492 0.83576763
0.01219545 0.18124621 0.83794862
0.012150639 0.18286732 0.83486962
0.012156093 0.18523754 0.83524442
0.012075548 0.18628314 0.82971019
0.012080849 0.18863888 0.83007443
0.011987674 0.18944038 0.82367235
