# .PCD v0.7 - Point Cloud Data file format
VERSION 0.7
FIELDS x y z
SIZE 4 4 4
TYPE F F F
COUNT 1 1 1
WIDTH 1156
HEIGHT 1
VIEWPOINT 0 0 0 1 0 0 0
POINTS 1156
DATA ascii
-0.026172392 -0.0045768428 0.81745505
-0.026132416 -0.0023338855 0.81620646
-0.026139719 -9.7946431e-05 0.81643456
-0.025988335 0.0021262595 0.8117063
-0.025993915 0.0043508322 0.81188065
-0.025928779 0.0065584718 0.80984616
-0.026015557 0.0088063898 0.81255656
-0.025900587 0.010983603 0.80896568
-0.025902774 0.013200848 0.80903399
-0.025797557 0.015354541 0.80574769
-0.025812877 0.017572286 0.80622619
-0.025793003 0.019765681 0.80560541
-0.025805816 0.021983521 0.8060056
-0.025857918 0.024240386 0.80763292
-0.025853323 0.026448166 0.80748945
-0.025840007 0.028645489 0.80707353
-0.02572925 0.030724179 0.8036142
-0.025740886 0.03294054 0.80397761
-0.025717992 0.035111751 0.80326259
-0.025761928 0.037376001 0.80463487
-0.025731718 0.039533854 0.80369127
-0.02580099 0.041847892 0.80585492
-0.025602091 0.043715876 0.79964256
-0.025453718 0.04564042 0.79500836
-0.025278341 0.04748885 0.78953075
-0.025282126 0.04965917 0.78964895
-0.025261562 0.051780239 0.78900671
-0.025307508 0.054039799 0.79044175
-0.02533978 0.056276854 0.79144973
-0.025302431 0.058358859 0.79028314
-0.025269244 0.060444426 0.78924662
-0.025243096 0.062541746 0.78842992
-0.025166975 0.064506516 0.78605241
-0.025074279 0.066414349 0.78315717
-0.023946811 -0.0045794831 0.81792659
-0.023891116 -0.0023333644 0.81602424
-0.023878235 -9.784443e-05 0.81558436
-0.023747768 0.0021247447 0.81112808
-0.023728289 0.004343234 0.81046277
-0.023641769 0.0065395329 0.80750757
-0.023722865 0.0087816902 0.81027752
-0.023630327 0.0109585 0.80711681
-0.023662964 0.013187755 0.80823153
-0.023539262 0.015321358 0.8040064
-0.023551969 0.017533364 0.80444038
-0.023556661 0.019741029 0.80460066
-0.023582645 0.02196941 0.80548817
-0.023581335 0.02417467 0.80544341
-0.023562137 0.026359675 0.8047877
-0.023565175 0.028568041 0.80489147
-0.023519535 0.030713411 0.80333257
-0.023553321 0.032961391 0.80448657
-0.023503339 0.035090629 0.80277938
-0.023512093 0.037303701 0.80307841
-0.023472888 0.039437834 0.80173934
-0.023591246 0.041844103 0.80578196
-0.023399374 0.04369323 0.79922837
-0.023271874 0.045632679 0.79487348
-0.023094418 0.047445633 0.78881228
-0.023162676 0.04975317 0.79114372
-0.023107102 0.051795911 0.78924555
-0.02313094 0.054013684 0.79005975
-0.023122251 0.056156918 0.78976297
-0.023102861 0.058271535 0.78910065
-0.023086276 0.060389861 0.78853416
-0.023038356 0.062420186 0.78689742
-0.022944396 0.064312503 0.78368819
-0.022887699 0.066295154 0.78175163
-0.021696482 -0.0045774472 0.817563
-0.021624073 -0.0023299626 0.81483454
-0.021619637 -9.7734417e-05 0.81466734
-0.02152456 0.0021246311 0.81108469
-0.021524901 0.0043466352 0.8110975
-0.021406403 0.0065324446 0.80663228
-0.021423656 0.0087492298 0.80728245
-0.021368269 0.010932412 0.80519533
-0.02140164 0.013158732 0.80645281
-0.021375692 0.015349345 0.80547506
-0.021359896 0.017542941 0.80487984
-0.021407794 0.019792162 0.80668473
-0.021381671 0.021975197 0.80570036
-0.021359714 0.024157548 0.80487299
-0.021297136 0.026285233 0.80251491
-0.021306394 0.028496072 0.80286378
-0.021314118 0.030706614 0.80315483
-0.02134132 0.032948826 0.80417985
-0.021275802 0.035043929 0.80171102
-0.021273337 0.037235871 0.80161816
-0.021239253 0.039368693 0.80033374
-0.021373058 0.041823011 0.80537575
-0.02123934 0.043753844 0.80033708
-0.021124927 0.045698833 0.79602581
-0.020940958 0.047462545 0.78909343
-0.02099603 0.049754743 0.79116869
-0.020949507 0.051807076 0.78941566
-0.02098066 0.054049902 0.79058951
-0.020958519 0.056156363 0.78975517
-0.020944349 0.058280446 0.78922129
-0.020923102 0.060381167 0.78842062
-0.020879976 0.062412106 0.78679556
-0.020806776 0.06434115 0.78403729
-0.020743055 0.066285364 0.78163612
-0.019447973 -0.0045753708 0.81719214
-0.019366456 -0.0023269097 0.81376684
-0.019379204 -9.7690645e-05 0.81430244
-0.019320216 0.0021265673 0.81182384
-0.019314369 0.0043492112 0.81157815
-0.019178536 0.0065262751 0.80587047
-0.019188873 0.0087386351 0.80630487
-0.019179955 0.010942388 0.80593014
-0.019172404 0.013145027 0.80561286
-0.01917208 0.015351713 0.80559927
-0.019149778 0.017538197 0.80466217
-0.019207129 0.019801663 0.80707198
-0.019133059 0.021927718 0.80395961
-0.019098083 0.024086021 0.80248988
-0.019060222 0.02623231 0.80089909
-0.019086789 0.02846596 0.80201536
-0.019070005 0.030636087 0.80131012
-0.019084161 0.032855619 0.80190498
-0.019029554 0.034952108 0.79961038
-0.019049624 0.037181783 0.80045372
-0.018994272 0.039260183 0.79812783
-0.019098576 0.041674227 0.80251068
-0.018999517 0.043645114 0.79834825
-0.018956045 0.04572729 0.79652154
-0.018781712 0.047468726 0.78919619
-0.018843345 0.049793564 0.79178602
-0.018774344 0.051772356 0.78888661
-0.01879474 0.053992074 0.78974366
-0.018737905 0.05598573 0.78735548
-0.018718189 0.058081485 0.78652704
-0.018699178 0.060174968 0.78572822
-0.018679028 0.062260274 0.78488153
-0.018595897 0.064123765 0.78138834
-0.018552879 0.066111058 0.77958077
-0.017184732 -0.0045688376 0.81602526
-0.017136117 -0.0023267665 0.81371677
-0.01716603 -9.7790784e-05 0.81513715
-0.017120881 0.0021296304 0.81299323
-0.017095063 0.0043502245 0.81176728
-0.016974669 0.0065277312 0.8060503
-0.016976038 0.0087365797 0.80611527
-0.016972071 0.010942344 0.80592686
-0.016942853 0.013127512 0.8045395
-0.016960448 0.015347439 0.80537498
-0.016939612 0.01753217 0.8043856
-0.016965928 0.019766411 0.80563515
-0.016891776 0.021877382 0.80211407
-0.016881576 0.024060205 0.80162972
-0.016876947 0.02624904 0.8014099
-0.016898047 0.028480032 0.80241185
-0.016866749 0.030621389 0.80092567
-0.016866926 0.032815836 0.80093402
-0.016816095 0.034904461 0.79852033
-0.016820079 0.037100762 0.79870951
-0.016744202 0.039111562 0.79510647
-0.016833974 0.041511096 0.79936934
-0.016816799 0.043656349 0.79855376
-0.016829787 0.04587936 0.79917043
-0.016689435 0.047667794 0.7925058
-0.016686896 0.049831249 0.79238522
-0.016644223 0.051868979 0.7903589
-0.016622091 0.053962287 0.78930795
-0.016574465 0.055963751 0.78704637
-0.01655353 0.05804643 0.78605229
-0.016578546 0.060290765 0.78724021
-0.016571302 0.062420085 0.78689617
-0.016493017 0.064270698 0.78317881
-0.016427049 0.066150539 0.78004628
-0.014949391 -0.0045688767 0.81603223
-0.014903179 -0.0023261744 0.8135097
-0.014920093 -9.7706303e-05 0.81443298
-0.014899601 0.0021304716 0.81331438
-0.014880389 0.0043528951 0.81226563
-0.014806543 0.0065454217 0.80823469
-0.014812285 0.0087629464 0.80854809
-0.014802029 0.010970333 0.80798829
-0.01474281 0.013131041 0.80475575
-0.014700143 0.015291255 0.8024267
-0.014668672 0.017452031 0.80070883
-0.014685051 0.019667476 0.80160284
-0.014654456 0.021817887 0.79993278
-0.014658814 0.024016414 0.80017072
-0.014668124 0.026225097 0.80067891
-0.014686511 0.028454147 0.80168259
-0.014663746 0.030602816 0.80043989
-0.014660602 0.03278856 0.80026829
-0.014617643 0.034878366 0.79792333
-0.014626439 0.037086546 0.79840344
-0.01457963 0.039148055 0.79584837
-0.014647988 0.041522022 0.79957974
-0.014643459 0.043698922 0.7993325
-0.014628864 0.045842927 0.79853582
-0.01451211 0.047647152 0.79216266
-0.014495698 0.049760912 0.7912668
-0.014484735 0.051889289 0.79066837
-0.014481963 0.054044947 0.79051703
-0.014445232 0.05606797 0.78851205
-0.014447036 0.058235344 0.78861052
-0.01441433 0.060258985 0.78682524
-0.014415016 0.062417429 0.78686267
-0.014318129 0.064139001 0.78157395
-0.014316872 0.06627427 0.78150535
-0.012677468 -0.0045557837 0.81369376
-0.012646262 -0.0023209734 0.81169081
-0.012667471 -9.7540636e-05 0.81305206
-0.012637656 0.0021247719 0.81113845
-0.012615568 0.0043392573 0.80972075
-0.012540586 0.0065184813 0.8049081
-0.01251949 0.0087088216 0.80355406
-0.012518503 0.010909268 0.8034907
-0.012490108 0.013080662 0.80166817
-0.012483711 0.015268977 0.80125761
-0.012462128 0.0174338 0.79987234
-0.012489147 0.019667568 0.80160654
-0.012480642 0.021848649 0.80106062
-0.012480634 0.024043109 0.80106014
-0.012477425 0.026230836 0.80085415
-0.012481107 0.028433133 0.80109048
-0.012480624 0.030626506 0.80105948
-0.012479331 0.03281758 0.80097651
-0.01245213 0.034935508 0.79923064
-0.012445629 0.037105586 0.79881334
-0.012401555 0.039154749 0.79598445
-0.012441351 0.041467965 0.79853874
-0.012451611 0.043691531 0.79919726
-0.012427533 0.045792185 0.79765189
-0.012344981 0.047658622 0.79235333
-0.012317193 0.04971708 0.79056978
-0.012337558 0.051968601 0.79187691
-0.012338848 0.054143578 0.7919597
-0.012323041 0.056240976 0.79094511
-0.012304284 0.058318838 0.78974122
-0.012247691 0.060204118 0.78610885
-0.012225635 0.062245339 0.78469324
-0.01218258 0.0641682 0.78192979
-0.012187913 0.066339292 0.78227204
-0.010440734 -0.0045524482 0.81309795
-0.010414653 -0.002319189 0.81106681
-0.010435184 -9.7494274e-05 0.81266564
-0.010398199 0.0021212276 0.80978543
-0.010394544 0.0043380787 0.80950081
-0.010314767 0.0065053608 0.80328798
-0.01029369 0.0086881481 0.80164653
-0.010274085 0.010863499 0.80011976
-0.010273302 0.013054401 0.80005872
-0.010267094 0.015236918 0.79957527
-0.010245861 0.017391285 0.79792178
-0.010274378 0.019631648 0.80014253
-0.010280704 0.021837046 0.80063522
-0.010300014 0.024075491 0.80213904
-0.010305007 0.026285656 0.80252784
-0.010313988 0.028508972 0.80322725
-0.010306814 0.030688025 0.80266857
-0.010293218 0.032843526 0.80160981
-0.010272681 0.034969594 0.80001038
-0.010273867 0.037165482 0.80010277
-0.010253236 0.039278295 0.79849601
-0.010256946 0.04148075 0.79878497
-0.0102428 0.043608766 0.79768336
-0.010198879 0.045597624 0.79426289
-0.010148459 0.047537301 0.79033631
-0.010139355 0.04965781 0.78962731
-0.010148747 0.051868968 0.79035872
-0.010161709 0.054103136 0.79136819
-0.01016204 0.056272887 0.79139394
-0.010139682 0.058312312 0.78965282
-0.010063597 0.060021739 0.78372747
-0.010040296 0.062024787 0.78191286
-0.010016792 0.064016603 0.78008246
-0.010038272 0.06629546 0.78175521
-0.0082050757 -0.0045478987 0.81228542
-0.0081840931 -0.0023167338 0.81020814
-0.0082012527 -9.7403259e-05 0.81190693
-0.0081781866 0.0021208033 0.80962342
-0.0081757726 0.0043374551 0.80938447
-0.0080973441 0.0064918548 0.80162024
-0.0080853421 0.0086749857 0.80043203
-0.0080700126 0.010847134 0.79891443
-0.0080907997 0.013069308 0.80097234
-0.0081032896 0.015287102 0.80220878
-0.0080835707 0.017442176 0.80025667
-0.0080987383 0.019671289 0.80175823
-0.008083309 0.021826016 0.8002308
-0.008107801 0.02409099 0.8026554
-0.0081091896 0.026294336 0.80279285
-0.0081082229 0.02849016 0.80269718
-0.008096043 0.03064302 0.80149144
-0.0080924714 0.032824188 0.8011378
-0.0080869086 0.034994803 0.80058712
-0.0080789886 0.037151556 0.79980302
-0.0080515547 0.039208993 0.79708719
-0.0080463607 0.041365881 0.79657292
-0.0080253761 0.04343449 0.79449552
-0.0080024311 0.045480579 0.79222405
-0.0079868119 0.047557838 0.79067773
-0.0079859449 0.049718469 0.7905919
-0.0079777893 0.051831283 0.78978449
-0.007971256 0.053950652 0.78913778
-0.007966687 0.056080297 0.78868544
-0.0079496698 0.05811647 0.78700078
-0.0079174079 0.060027827 0.78380692
-0.00790527 0.062079713 0.78260529
-0.0078941518 0.064133309 0.78150457
-0.0078924224 0.06625969 0.78133339
-0.0059701623 -0.0045405305 0.81096941
-0.0059488225 -0.0023106218 0.80807066
-0.0059671383 -9.72415e-05 0.81055862
-0.005960681 0.0021209554 0.80968148
-0.0059710592 0.0043466017 0.81109124
-0.0059143412 0.0065061613 0.80338681
-0.0059144022 0.0087070987 0.80339509
-0.0058956137 0.010873318 0.80084294
-0.0059200563 0.013121372 0.80416316
-0.0059214719 0.01532801 0.80435544
-0.005900396 0.017469112 0.80149251
-0.0059020119 0.019670157 0.80171204
-0.0058840462 0.021799855 0.79927164
-0.0059011392 0.024059117 0.80159348
-0.0058965012 0.026234418 0.80096346
-0.0059082005 0.028485032 0.8025527
-0.0059065782 0.030675167 0.80233228
-0.0059227631 0.032963205 0.8045308
-0.0059313048 0.035217907 0.80569112
-0.0059193848 0.03734985 0.8040719
-0.0058899708 0.039356038 0.80007643
-0.0058700843 0.041407537 0.79737508
-0.0058449209 0.043405045 0.79395694
-0.0058208811 0.045392595 0.79069149
-0.0058084792 0.047457337 0.78900683
-0.0058169891 0.049691483 0.7901628
-0.0058169025 0.051855333 0.790151
-0.0058107274 0.053962577 0.78931224
-0.0058003576 0.056024704 0.78790361
-0.0057918928 0.058098231 0.78675377
-0.0057772044 0.060100708 0.78475857
-0.0057762894 0.06224066 0.78463423
-0.0057576303 0.06418214 0.78209966
-0.0057555586 0.066300809 0.78181827
-0.0037441554 -0.0045352159 0.81002021
-0.0037242994 -0.0023039132 0.8057245
-0.0037387898 -9.703765e-05 0.80885941
-0.0037361907 0.002117329 0.8082971
-0.0037439596 0.0043406351 0.80997783
-0.003713981 0.0065070149 0.80349219
-0.0037157217 0.0087122321 0.80386877
-0.0037090445 0.010894787 0.80242425
-0.0037256775 0.013151713 0.80602264
-0.0037303178 0.015378912 0.80702657
-0.0037178791 0.017531078 0.80433553
-0.0037169685 0.019729691 0.80413854
-0.003702492 0.021847175 0.80100662
-0.0037103037 0.024092227 0.80269665
-0.0037085107 0.026278479 0.80230874
-0.0037174188 0.028544774 0.80423594
-0.0037224893 0.030789888 0.8053329
-0.0037425321 0.033173729 0.80966902
-0.0037647213 0.035601623 0.81446952
-0.0037718466 0.037904434 0.81601101
-0.0037301029 0.039695628 0.80698007
-0.0037154607 0.041741822 0.80381233
-0.0037031965 0.043798782 0.80115908
-0.0036860954 0.045781132 0.79745936
-0.0036656044 0.047699098 0.79302627
-0.0036613338 0.049813461 0.7921024
-0.0036544136 0.051885147 0.79060525
-0.0036518497 0.054013055 0.79005057
-0.0036411569 0.056012876 0.78773725
-0.0036384598 0.058127768 0.78715378
-0.0036310712 0.060161725 0.7855553
-0.0036301715 0.062298279 0.78536063
-0.0036114454 0.06411729 0.78130937
-0.0036060354 0.066158399 0.78013897
-0.0015214473 -0.0045242482 0.80806124
-0.0015136453 -0.002298746 0.80391747
-0.0015223597 -9.7000026e-05 0.80854577
-0.0015196748 0.002114245 0.80711979
-0.0015237349 0.0043368749 0.80927616
-0.0015134249 0.0065095108 0.8038004
-0.0015131605 0.0087099699 0.80365998
-0.0015111023 0.010896724 0.80256683
-0.0015156318 0.013134578 0.80497253
-0.0015178261 0.015361979 0.80613798
-0.0015132957 0.017517919 0.8037318
-0.0015134899 0.019722242 0.80383492
-0.0015110115 0.021888414 0.80251861
-0.00151648 0.024174057 0.80542302
-0.0015212812 0.026464004 0.80797297
-0.0015412391 0.029053636 0.81857288
-0.0015777241 0.032036945 0.83795059
nan nan nan
nan nan nan
nan nan nan
-0.001598387 0.04175891 0.84892493
-0.0015539944 0.042860135 0.82534742
-0.0015434937 0.044816244 0.81977034
-0.0015388536 0.046920497 0.81730592
-0.0015198819 0.048553415 0.80722982
-0.0015047339 0.050258838 0.7991845
-0.0014927175 0.052029341 0.79280245
-0.0014877853 0.054022096 0.79018283
-0.0014811769 0.055937205 0.78667307
-0.0014832964 0.058175396 0.78779876
-0.0014785606 0.060140911 0.78528351
-0.0014787503 0.062300153 0.78538424
-0.001466953 0.0639375 0.77911854
-0.001467779 0.066109069 0.77955729
0.00069128332 -0.0045182193 0.80698448
0.0006887234 -0.0022989709 0.80399615
0.00069277547 -9.7021693e-05 0.80872643
0.00069141615 0.0021142969 0.80713958
0.00069329049 0.0043371506 0.8093276
0.00068950496 0.0065184846 0.80490851
0.00068865024 0.0087126875 0.80391073
0.00068830891 0.01090956 0.80351228
0.00068845635 0.013113559 0.80368435
0.00068813027 0.015307968 0.80330372
0.00068560813 0.017444417 0.80035949
0.00068811909 0.019708889 0.80329067
0.00068991637 0.021966698 0.80538875
0.00069930649 0.024502037 0.81635052
0.00073036726 0.027926026 0.85260999
nan nan nan
nan nan nan
0.00090208469 0.043146264 1.053068
0.00091575377 0.0467286 1.0690249
0.00090487127 0.049067043 1.056321
nan nan nan
nan nan nan
nan nan nan
nan nan nan
nan nan nan
0.000712062 0.052274793 0.83124095
0.00068430696 0.052425604 0.79884052
0.00067767862 0.05408499 0.79110277
0.00067368301 0.055920519 0.78643841
0.00067454379 0.058149144 0.78744322
0.00067259197 0.060131818 0.78516477
0.00067181466 0.062210765 0.78425735
0.00066694425 0.063892633 0.77857178
0.000667913 0.066121399 0.77970266
0.002897301 -0.0045109242 0.80568153
0.0028947347 -0.0023017495 0.80496788
0.0029101821 -9.7086122e-05 0.80926347
0.0029033241 0.002114865 0.80735642
0.0029110063 0.0043380354 0.80949271
0.0028961792 0.0065222187 0.80536956
0.0028966081 0.0087297903 0.80548882
0.00289248 0.010920811 0.8043409
0.0028912607 0.013118739 0.80400181
0.0028839165 0.015282353 0.80195957
0.0028784659 0.017446255 0.80044383
0.0028980589 0.01977272 0.80589229
0.0029682177 0.022512553 0.82540202
nan nan nan
nan nan nan
nan nan nan
0.0038115212 0.040522926 1.0599079
0.0038853644 0.044267837 1.0804422
0.0038830992 0.047200132 1.0798123
0.0038462197 0.049681861 1.0695568
0.0037840726 0.051761769 1.0522749
0.0037383675 0.05398443 1.0395653
0.0036704999 0.055800524 1.0206927
0.0035839055 0.05721426 0.99661249
nan nan nan
nan nan nan
0.0029931839 0.054624382 0.83234465
0.0028727776 0.054615464 0.79886204
0.0028372351 0.056101128 0.7889784
0.0028355531 0.058227971 0.78851068
0.0028279142 0.060225379 0.78638643
0.0028229456 0.062270053 0.78500479
0.002802674 0.063957937 0.77936763
0.0028056023 0.066162042 0.78018194
0.0051101572 -0.0045159813 0.80658472
0.0051059644 -0.0023044804 0.80592293
0.0051245391 -9.7037089e-05 0.80885476
0.00510797 0.0021119392 0.80623955
0.0051187146 0.0043296902 0.80793548
0.0050936718 0.0065109874 0.80398273
0.0051013017 0.0087265195 0.80518699
0.005095765 0.010920432 0.80431306
0.0050910758 0.013111741 0.80357295
0.0050830888 0.015289075 0.80231225
0.0050876494 0.017502669 0.8030321
0.005348797 0.020713869 0.84425151
nan nan nan
nan nan nan
0.0067893062 0.035099413 1.0716208
0.0068762386 0.038522087 1.0853422
0.0068874201 0.041562818 1.0871071
0.0068633682 0.044385366 1.0833107
0.0068251439 0.047089331 1.0772774
0.0067440853 0.049446184 1.0644832
0.0066428855 0.051576562 1.0485098
0.0065680933 0.053835876 1.0367047
0.0064531304 0.055683874 1.018559
0.0063044452 0.057126891 0.9950906
0.0060869949 0.05778848 0.96076834
0.0058617168 0.058184318 0.92521054
0.0055720662 0.057718541 0.87949222
0.0052295835 0.056432161 0.82543492
0.0050546704 0.056730296 0.79782671
0.0050112787 0.058410157 0.79097784
0.0049883542 0.060299892 0.78735942
0.0049673393 0.062193714 0.78404242
0.0049442034 0.064041898 0.78039068
0.0049463729 0.06620878 0.78073311
0.0073198234 -0.0045160167 0.80659109
0.0073187496 -0.0023060527 0.80647278
0.0073421011 -9.706003e-05 0.80904597
0.0073026824 0.0021079124 0.80470228
0.0073193363 0.0043221982 0.80653745
0.0072826799 0.0064989645 0.80249816
0.0073131728 0.0087337941 0.80585825
0.0073045548 0.010928519 0.80490863
0.0073191752 0.013159823 0.80651969
0.0073319073 0.015395988 0.80792266
0.0074351593 0.017857246 0.81930029
nan nan nan
nan nan nan
0.0095090708 0.031449694 1.0478302
0.0097334916 0.035130166 1.0725597
0.009867169 0.038591225 1.08729
0.0098521765 0.041506648 1.0856379
0.0097395098 0.043972045 1.0732229
0.0096392734 0.046429291 1.0621775
0.0095542967 0.048904128 1.0528138
0.0094609298 0.051282186 1.0425254
0.0093542235 0.053527545 1.0307672
0.0091811717 0.055308796 1.0116981
0.0089457985 0.056591332 0.98576176
0.0086693978 0.057459831 0.95530432
0.0084209749 0.058355339 0.92793
0.0081579816 0.058995504 0.89895004
0.0077878297 0.058669601 0.85816199
0.0073902095 0.057905 0.81434715
0.0072131548 0.058695141 0.794837
0.0071370774 0.060230538 0.78645384
0.0071037696 0.062093858 0.78278357
0.0070810309 0.064032644 0.78027791
0.0070898281 0.066252388 0.78124732
0.0095321387 -0.0045172917 0.80681878
0.0095215868 -0.0023044883 0.80592567
0.0095595373 -9.7071053e-05 0.80913782
0.0095060887 0.0021076808 0.80461383
0.0095255896 0.0043207351 0.80626446
0.0094740195 0.006494116 0.80189943
0.0095182667 0.0087314788 0.80564463
0.0095270732 0.010948632 0.80638999
0.0095859421 0.01323901 0.81137282
0.0097016059 0.015648296 0.82116282
0.010061112 0.018561069 0.85159212
nan nan nan
0.01192415 0.02752785 1.0092833
0.012239334 0.03109345 1.035961
0.012430505 0.034461416 1.0521421
0.012572829 0.037771288 1.0641887
0.01258966 0.040741056 1.0656133
0.012463454 0.043222595 1.054931
0.012342317 0.045664351 1.0446777
0.012263427 0.048216034 1.0380003
0.012162912 0.050641093 1.0294925
0.012023794 0.05284987 1.0177174
0.011820931 0.054699149 1.0005466
0.011528833 0.056020748 0.97582281
0.011207153 0.057056289 0.94859523
0.010936183 0.058212571 0.92565978
0.010627579 0.059034154 0.89953899
0.010281528 0.059495918 0.87024856
0.0098306397 0.05916623 0.83208448
0.0094666919 0.059170872 0.80127925
0.0092946095 0.06025045 0.78671384
0.009250883 0.062112037 0.78301275
0.0092222262 0.064058021 0.78058714
0.0092245713 0.066213243 0.78078568
0.011736779 -0.0045151333 0.80643332
0.011716496 -0.0023019551 0.80503976
0.011773408 -9.7048542e-05 0.80895019
0.011724307 0.0021102023 0.80557644
0.01174931 0.0043262546 0.80729443
0.011693737 0.0065068835 0.80347598
0.011750409 0.008750177 0.80736989
0.011789454 0.010998362 0.81005269
0.011997907 0.013451173 0.82437551
0.012391261 0.016224556 0.85140276
0.013274792 0.019880103 0.91211009
nan nan nan
0.014476817 0.027130129 0.99470121
0.014768837 0.030457297 1.0147659
0.014883839 0.033496022 1.0226676
0.01502665 0.036645856 1.0324802
0.015093362 0.039649546 1.037064
0.01506298 0.042405017 1.0349765
0.014935907 0.044858642 1.0262452
0.01485342 0.047406729 1.0205775
0.014664344 0.049563508 1.0075861
0.014509998 0.051773038 0.99698108
0.01426795 0.053595018 0.98035002
0.013984534 0.055162698 0.96087646
0.013669864 0.056494523 0.93925554
0.013397455 0.057890493 0.92053831
0.013062917 0.058903765 0.89755219
0.012664513 0.059491083 0.87017787
0.01224965 0.059848014 0.84167272
0.011758522 0.059661802 0.80792731
0.011474468 0.060380347 0.78840995
0.011404403 0.062158287 0.7835958
0.011363271 0.064072996 0.78076965
0.011359666 0.066190876 0.78052199
0.01393574 -0.0045118211 0.80584168
0.013894921 -0.0022974988 0.80348128
0.013957025 -9.6823278e-05 0.80707252
0.013926247 0.0021094591 0.80529273
0.013963699 0.0043271333 0.8074584
0.013925293 0.0065211495 0.80523759
0.013988115 0.0087664379 0.80887026
0.014056563 0.011036048 0.81282836
0.014289061 0.013482127 0.82627261
0.014750823 0.016254503 0.8529743
0.01587994 0.020014277 0.91826606
0.016590785 0.023538351 0.95937109
0.017057266 0.026902232 0.98634559
0.017327506 0.030073309 1.0019723
0.017354686 0.032869656 1.0035441
0.01753396 0.035986766 1.0139107
0.01762135 0.03895754 1.0189641
0.017688842 0.04190886 1.0228668
0.017512731 0.044265822 1.0126832
0.017389443 0.046708863 1.0055538
0.017103985 0.048651569 0.98904711
0.016886743 0.050708681 0.97648501
0.016608611 0.052504469 0.96040189
0.016416823 0.054498781 0.94931167
0.016121099 0.056070819 0.93221116
0.015837464 0.057593133 0.91580987
0.015414185 0.058495652 0.89133352
0.014981003 0.059224911 0.86628455
0.014590627 0.059992936 0.84371084
0.01413009 0.060337692 0.81708008
0.013698186 0.060663331 0.79210496
0.013546945 0.06213953 0.78335935
0.013483067 0.06398239 0.77966559
0.013449305 0.065952696 0.7777133
0.016103499 -0.0045006932 0.80385423
0.016065476 -0.0022931383 0.8019563
0.016146177 -9.6692776e-05 0.80598474
0.016112702 0.0021068945 0.80431366
0.016160592 0.0043230923 0.80670428
0.016153276 0.0065300702 0.80633909
0.016246483 0.0087894304 0.81099176
0.016333723 0.011070238 0.8153466
0.016553212 0.013482625 0.82630306
0.017004555 0.01617559 0.8488332
0.018061899 0.019651325 0.90161365
0.019077985 0.02336571 0.95233464
0.019536037 0.02659823 0.97519964
0.019811047 0.029681785 0.9889276
0.01981961 0.032404914 0.98935503
0.020011423 0.035455059 0.99893004
0.020068219 0.038299982 1.0017651
0.020076986 0.041062213 1.0022027
0.019884314 0.043387305 0.992585
0.019723697 0.045734018 0.98456722
0.019450095 0.04775938 0.9709096
0.019197579 0.04976457 0.95830452
0.018935626 0.051674943 0.94522834
0.018735766 0.053691618 0.93525177
0.018439837 0.055365186 0.9204796
0.018151801 0.056982592 0.90610141
0.017714655 0.058032747 0.88427997
0.017294735 0.059022125 0.86331838
0.016945574 0.060147814 0.84588897
0.016516959 0.060885128 0.82449335
0.015954671 0.060994189 0.7964251
0.015688518 0.062122073 0.78313929
0.015622023 0.063995063 0.77981997
0.015566881 0.065897919 0.77706736
0.018278794 -0.0044940962 0.8026759
0.018234091 -0.0022895827 0.80071288
0.018290212 -9.6355972e-05 0.8031773
0.018261861 0.0021006565 0.80193233
0.018322488 0.004311787 0.80459464
0.018349411 0.0065255174 0.80577689
0.018464165 0.0087875267 0.81081611
0.01859354 0.011085862 0.81649733
0.018768072 0.013447682 0.82416159
0.01917338 0.016044609 0.84195983
0.020121532 0.019258618 0.883596
0.021110399 0.022744613 0.92702007
0.021765949 0.026069308 0.95580721
0.022109875 0.029141003 0.97091001
0.022192014 0.031918917 0.97451699
0.022333752 0.034809481 0.98074114
0.022358907 0.037538417 0.9818458
0.022244351 0.040022038 0.97681528
0.022162011 0.042539936 0.97319949
0.022018339 0.044912912 0.96689039
0.02177074 0.047026835 0.95601755
0.021549596 0.049141515 0.94630647
0.0213072 0.051151969 0.93566221
0.021105593 0.053206928 0.92680901
0.02077429 0.054870825 0.91226053
0.020437259 0.056439187 0.89746052
0.019980863 0.057582468 0.87741876
0.019594973 0.058827609 0.86047322
0.019251497 0.06011235 0.8453902
0.018791642 0.060937062 0.82519662
0.018227179 0.06129932 0.80040932
0.017916819 0.062410913 0.78678054
0.017837325 0.064279795 0.78328967
0.017708898 0.065947339 0.77765012
0.020486943 -0.004496126 0.80303848
0.020422418 -0.0022890004 0.80050921
0.020470899 -9.6263873e-05 0.80240959
0.020425295 0.0020972244 0.80062205
0.020488791 0.0043038353 0.8031109
0.020524655 0.0065153115 0.80451667
0.020664304 0.0087785795 0.80999058
0.020808851 0.011074446 0.81565648
0.020952491 0.013400776 0.82128686
0.021279482 0.015894908 0.83410412
0.022014763 0.018808084 0.86292529
0.022918303 0.022040987 0.89834189
0.023519054 0.025144225 0.92188984
0.024133446 0.028392527 0.94597256
0.024290549 0.031185681 0.95213056
0.024384888 0.033925254 0.95582849
0.024288423 0.036399145 0.95204729
0.024273103 0.038982641 0.95144677
0.02425571 0.04155929 0.95076495
0.024186866 0.044038527 0.94806647
0.024009788 0.046294287 0.94112545
0.023776932 0.048398484 0.93199807
0.02353595 0.050435252 0.92255217
0.023315029 0.052465413 0.91389257
0.022959704 0.054131251 0.89996469
0.022641752 0.055812903 0.88750178
0.022245465 0.057224765 0.87196827
0.021890324 0.058661781 0.8580476
0.02151899 0.05997739 0.84349221
0.020981161 0.060731329 0.82241064
0.020499391 0.061538044 0.80352646
0.020193968 0.062789612 0.79155457
0.020046066 0.064482294 0.78575718
0.019865181 0.066033565 0.77866691
0.02266437 -0.0044916738 0.80224323
0.022576172 -0.0022850318 0.79912132
0.02260161 -9.5977412e-05 0.80002177
0.022572624 0.0020929642 0.79899573
0.022632187 0.0042930809 0.80110407
0.022661192 0.0064959894 0.80213076
0.022783702 0.0087403944 0.80646724
0.022942992 0.011026233 0.81210554
0.023134649 0.01336166 0.81888956
0.023440123 0.015811026 0.82970232
0.024066443 0.018567169 0.85187197
0.024765642 0.02150807 0.87662131
0.025192782 0.024321914 0.89174062
0.025712678 0.027317142 0.91014326
0.025980186 0.030120585 0.91961211
0.026210023 0.032928579 0.92774761
0.02628044 0.035565402 0.93024009
0.026426565 0.038325682 0.93541247
0.026412062 0.040865771 0.93489909
0.026363619 0.043347236 0.93318433
0.026179165 0.045582496 0.92665529
0.025985725 0.047765464 0.91980821
0.025738755 0.049807329 0.91106629
0.025493249 0.051804271 0.90237617
0.025065981 0.053366624 0.88725227
0.02474091 0.055073604 0.87574589
0.024365913 0.056601569 0.86247224
0.024023496 0.058135644 0.85035181
0.023554077 0.059283659 0.83373594
0.023016326 0.06016203 0.81470132
0.022591585 0.061242465 0.79966694
0.02242236 0.062957965 0.79367691
0.022187565 0.064450182 0.78536594
0.02205275 0.066196978 0.78059393
0.024838086 -0.004487338 0.80146885
0.024739964 -0.002282691 0.79830265
0.024794076 -9.5980642e-05 0.80004871
0.024735937 0.0020908082 0.79817271
0.024794968 0.0042875796 0.8000775
0.024723753 0.0064607514 0.79777956
0.024816217 0.008678575 0.80076319
0.024979992 0.010943986 0.80604786
0.025294142 0.013317526 0.81618476
0.025635159 0.015763124 0.82718855
0.026081381 0.018343005 0.84158719
0.026760373 0.021186056 0.86349672
0.02712 0.023868077 0.87510103
0.027514955 0.02664789 0.88784534
0.027687326 0.029262288 0.8934074
0.028036729 0.032109901 0.9046818
0.028134115 0.034708388 0.90782422
0.028423134 0.037577443 0.91715026
0.028356155 0.039995473 0.91498899
0.028365295 0.042515747 0.91528392
0.028177822 0.044725563 0.90923458
0.028091844 0.04707231 0.90646029
0.027850004 0.049128897 0.89865661
0.027508194 0.050957549 0.88762718
0.027033089 0.052467067 0.87229663
0.026782131 0.054347437 0.8641988
0.026400914 0.0559076 0.85189778
0.026065433 0.057501253 0.84107256
0.025510518 0.058532126 0.82316673
0.025092062 0.059790052 0.80966407
0.024660662 0.060942009 0.79574376
0.024516776 0.062753625 0.79110092
0.024258697 0.064237423 0.78277332
0.024138503 0.066052899 0.7788949
0.026912687 -0.0044672545 0.79788178
0.026817625 -0.0022734287 0.7950635
0.026903948 -9.5689596e-05 0.79762268
0.026878413 0.0020873845 0.79686564
0.026960399 0.0042833933 0.79929632
0.02683988 0.0064440994 0.79572332
0.026901249 0.0086436709 0.79754269
0.026959023 0.010851764 0.79925549
0.027268205 0.01319086 0.80842185
0.027566353 0.015573942 0.81726104
0.028066052 0.018135695 0.83207566
0.028655732 0.020844065 0.84955794
0.029063126 0.023500821 0.86163598
0.029518699 0.026266623 0.8751424
0.029646322 0.028787971 0.87892604
0.029997712 0.031565506 0.88934368
0.030118395 0.034138624 0.89292157
0.030440634 0.03697617 0.902475
0.030377205 0.039366268 0.90059453
0.030352289 0.041799098 0.89985585
0.030203721 0.044047557 0.89545125
0.030115386 0.046364617 0.8928324
0.02977331 0.048256062 0.88269085
0.029412555 0.050060157 0.87199551
0.028949663 0.05162352 0.85827214
0.028704304 0.053517267 0.85099798
0.028249528 0.054963708 0.83751518
0.027944483 0.056639761 0.82847148
0.027479075 0.057928208 0.81467354
0.027204018 0.059557796 0.80651891
0.026733141 0.060698088 0.79255879
0.026632302 0.062632121 0.7895692
0.026341392 0.064087354 0.78094459
0.026251612 0.066000998 0.77828288
0.029008476 -0.0044534407 0.79541457
0.028949536 -0.0022698115 0.79379845
0.029083269 -9.5670723e-05 0.79746538
0.028998302 0.0020828526 0.79513562
0.029082894 0.0042735264 0.79745513
0.028953925 0.0064294855 0.79391879
0.029047444 0.0086321877 0.7964831
0.029055318 0.010817054 0.79669899
0.029236374 0.013080587 0.80166358
0.029494805 0.015411749 0.80874974
0.029880896 0.017858032 0.81933641
0.03048473 0.020508807 0.83589357
0.030876832 0.02309195 0.84664506
0.03133389 0.025787452 0.85917759
0.031534813 0.02832159 0.86468697
0.031891506 0.031037504 0.87446743
0.032058042 0.033607662 0.87903392
0.032274075 0.036258448 0.88495755
0.03215364 0.038538404 0.88165522
0.032109346 0.04089725 0.88044071
0.031986181 0.043143056 0.87706345
0.031901352 0.045424949 0.87473744
0.031596191 0.04736381 0.86636996
0.031303611 0.049276631 0.85834736
0.030926904 0.051006749 0.84801799
0.030647885 0.05284873 0.84036732
0.030169645 0.054290295 0.82725394
0.029822968 0.055906635 0.81774801
0.02946144 0.057441939 0.80783486
0.029263776 0.059254732 0.80241489
0.028860375 0.06060579 0.79135364
0.028732039 0.062494531 0.78783464
0.028445587 0.064008206 0.77998012
0.028296988 0.065799393 0.77590555
0.031013008 -0.0044285259 0.79096466
0.030891087 -0.0022528169 0.78785515
0.031104229 -9.5169955e-05 0.79329121
0.031083399 0.0020766295 0.79275995
0.03122771 0.0042680888 0.79644048
0.03110815 0.0064252131 0.79339123
0.031177936 0.0086179674 0.79517102
0.031076664 0.01076124 0.79258817
0.031161215 0.012967692 0.79474461
0.03137188 0.015247249 0.80011743
0.03176222 0.017656125 0.81007278
0.032308895 0.020217372 0.82401538
0.032513097 0.022616779 0.82922339
0.033028066 0.025282608 0.84235734
0.033302482 0.027819449 0.84935611
0.033678506 0.030486612 0.85894632
0.033808105 0.032966033 0.86225164
0.033903543 0.035427868 0.86468571
0.033859462 0.037747502 0.86356145
0.033865888 0.040120803 0.8637253
0.033764005 0.042359129 0.8611269
0.033634823 0.044547062 0.85783219
0.033343919 0.046491452 0.85041291
0.03308633 0.048443973 0.84384328
0.032637164 0.050066609 0.83238757
0.032388072 0.051947385 0.82603472
0.031966444 0.053504568 0.81528133
0.031738013 0.055339698 0.80945539
0.031442501 0.057021253 0.80191857
0.0313242 0.05899528 0.79890144
0.031037079 0.06062302 0.79157859
0.030916885 0.062548347 0.78851312
0.030566333 0.063974753 0.77957255
0.030420825 0.065795653 0.77586144
0.033146095 -0.0044240244 0.79016066
0.033002354 -0.0022496111 0.78673398
0.033186451 -9.4909803e-05 0.79112267
0.033110868 0.0020676209 0.78932089
0.033291724 0.0042530401 0.79363227
0.033240683 0.0064173113 0.7924155
0.03332964 0.0086110858 0.79453605
0.033263098 0.010766149 0.7929498
0.033272877 0.012942211 0.79318297
0.033435717 0.015189079 0.79706484
0.033665258 0.017491873 0.80253685
0.034128901 0.019961571 0.81358945
0.034330983 0.022321761 0.81840682
0.034639224 0.024784302 0.82575494
0.034975961 0.027309353 0.83378232
0.035321824 0.029886102 0.84202725
0.03545082 0.032310374 0.84510237
0.035544377 0.034716878 0.8473326
0.03549422 0.036985848 0.84613693
0.035493139 0.03930261 0.84611118
0.035376456 0.041483674 0.84332961
0.035256177 0.043645047 0.84046227
0.035063595 0.045696478 0.8358714
0.034812067 0.047642089 0.82987529
0.034430273 0.049368061 0.82077378
0.034206685 0.051281344 0.81544375
0.03388992 0.053019654 0.80789244
0.033700958 0.054924883 0.80338788
0.033448845 0.056698378 0.79737782
0.033381779 0.058764707 0.79577905
0.033189658 0.060593955 0.79119909
0.032944813 0.062298413 0.7853623
0.032560911 0.063698865 0.77621061
0.032406792 0.065513693 0.77253658
0.035294924 -0.0044220467 0.78980738
0.03510217 -0.0022460655 0.78549403
0.03521245 -9.4530602e-05 0.78796184
0.03514573 0.00206015 0.7864688
0.035375275 0.0042421781 0.79160541
0.035356067 0.0064072693 0.79117554
0.035476442 0.0086038588 0.79386926
0.035394527 0.010753745 0.79203618
0.035400312 0.012925612 0.7921657
0.03548285 0.015130914 0.79401261
0.035638601 0.017382048 0.79749793
0.035989843 0.019759607 0.80535781
0.036099464 0.02203276 0.80781084
0.036353812 0.024416553 0.81350243
0.036576606 0.026808409 0.818488
0.037022337 0.029404642 0.8284623
0.037171107 0.031801462 0.8317914
0.037318625 0.034215376 0.83509243
0.037205435 0.036392365 0.83255959
0.037209678 0.03867754 0.83265454
0.03702293 0.040752999 0.82847559
0.036901291 0.042881228 0.82575363
0.036731102 0.044935141 0.82194519
0.036582533 0.046995971 0.81862062
0.036287479 0.048841424 0.81201816
0.036077626 0.050770596 0.80732214
0.035770666 0.052531436 0.80045319
0.035720937 0.054648172 0.79934043
0.035546336 0.05656011 0.79543328
0.035508554 0.058676742 0.79458785
0.035345953 0.060574818 0.79094923
0.034954112 0.062046044 0.78218085
0.034538843 0.063426219 0.77288824
0.034360521 0.06520512 0.76889789
0.037473924 -0.0044238591 0.79013109
0.037306543 -0.0022492332 0.78660184
0.037327651 -9.4420837e-05 0.78704691
0.03718992 0.0020540571 0.78414285
0.037436016 0.004229994 0.78933179
0.03752004 0.0064066853 0.79110342
0.037671305 0.0086084493 0.79429281
0.037608903 0.01076652 0.79297709
0.037588414 0.012931801 0.79254502
0.037588194 0.01510286 0.79254043
0.037571233 0.017266201 0.7921828
0.037714917 0.019510686 0.79521239
0.037735652 0.021701064 0.79564953
0.038104255 0.024113981 0.80342144
0.038318172 0.026462659 0.8079319
0.038745657 0.028995868 0.81694531
0.038757771 0.031243624 0.81720072
0.038929746 0.033630881 0.82082677
0.03885594 0.035811484 0.81927061
0.038910806 0.038109582 0.82042748
0.038756508 0.040197078 0.81717414
0.038617697 0.042283706 0.81424731
0.038429849 0.04429777 0.81028652
0.038361829 0.046435189 0.80885237
0.038162511 0.04839823 0.80464977
0.038006037 0.05039506 0.80135059
0.037733644 0.052213412 0.79560721
0.037760101 0.054431081 0.79616505
0.037602574 0.056375965 0.79284358
0.037563451 0.05848702 0.79201871
0.037341092 0.060297664 0.78733033
0.03692219 0.061753895 0.77849787
0.036503576 0.06316223 0.76967144
0.036293454 0.064895011 0.76524109
0.039574731 -0.0044167466 0.7888608
0.039411537 -0.0022463908 0.78560776
0.039426286 -9.4283459e-05 0.78590178
0.039334532 0.0020538736 0.78407282
0.03949859 0.004219336 0.78734303
0.03952213 0.0063800323 0.78781229
0.039675858 0.0085714255 0.79087663
0.039676197 0.010738093 0.79088336
0.039712548 0.012916512 0.79160798
0.039684463 0.015074422 0.79104811
0.039616264 0.01721184 0.78968871
0.039722804 0.019427268 0.79181242
0.03968706 0.021576975 0.79109991
0.03995946 0.023907134 0.79652977
0.04004997 0.026148291 0.79833394
0.040482055 0.028640993 0.80694687
0.040521577 0.030881714 0.80773467
0.040679704 0.033223622 0.81088674
0.040575188 0.035353947 0.80880338
0.040615182 0.037606664 0.80960059
0.040504649 0.039716154 0.80739731
0.040408008 0.041827951 0.80547088
0.040246744 0.043858767 0.80225635
0.040263437 0.04607562 0.80258906
0.040087387 0.048063207 0.79907978
0.040025201 0.050174296 0.79784018
0.039725501 0.051967897 0.79186618
0.039804537 0.054244891 0.79344165
0.03962294 0.056161094 0.78982174
0.039581943 0.058264442 0.78900456
0.03927727 0.059960771 0.78293139
0.03897823 0.061632738 0.77697051
0.038631395 0.063193858 0.77005684
0.038457006 0.06500861 0.7665807
0.041658401 -0.0044085574 0.78739816
0.041514099 -0.0022437111 0.78467065
0.041534875 -9.4182869e-05 0.78506333
0.041376598 0.0020486317 0.78207165
0.041478422 0.004201401 0.78399628
0.04155403 0.0063607022 0.78542536
0.041782122 0.0085590696 0.78973663
0.041857414 0.010741845 0.79115969
0.041868623 0.012912654 0.79137158
0.041821484 0.015063607 0.79048061
0.041689232 0.017174616 0.78798085
0.041800708 0.019384954 0.79008788
0.041722745 0.021509182 0.78861433
0.041853536 0.023743758 0.79108644
0.04175932 0.025852581 0.78930563
0.04202855 0.028195469 0.79439443
0.04217251 0.030475715 0.79711545
0.042453993 0.032877367 0.80243582
0.042380933 0.035015251 0.80105489
0.042476073 0.03729324 0.80285317
0.04234663 0.039372277 0.80040658
0.042351343 0.041569587 0.80049562
0.04209004 0.0434925 0.79555666
0.042159677 0.045747463 0.79687291
0.041950718 0.047692902 0.79292327
0.042007893 0.049933046 0.79400396
0.041734867 0.051769525 0.78884345
0.04187075 0.05410612 0.79141182
0.041654181 0.055983089 0.78731835
0.041618172 0.058089662 0.78663772
0.0412593 0.059725136 0.7798546
0.041016646 0.061497696 0.77526808
0.040649425 0.063051917 0.76832718
0.04045327 0.064842306 0.76461959
0.043882951 -0.0044153491 0.78861117
0.043765716 -0.0022489545 0.78650439
0.043737184 -9.4294235e-05 0.78599161
0.043518592 0.00204861 0.78206336
0.043508496 0.0041900706 0.78188193
0.043494288 0.0063299378 0.78162658
0.04375761 0.0085224602 0.78635871
0.043901492 0.010711767 0.78894436
0.043976121 0.012894933 0.79028553
0.043918043 0.015040001 0.78924185
0.043825861 0.017165992 0.7875852
0.043974228 0.01938897 0.79025149
0.04385595 0.02149586 0.78812593
0.043856777 0.023655348 0.78814083
0.043651525 0.025693616 0.78445226
0.043837771 0.027961386 0.78779924
0.043903187 0.030164478 0.78897482
0.044195089 0.032540776 0.79422057
0.04412536 0.034661736 0.79296744
0.044251282 0.036939155 0.79523039
0.04420273 0.039074741 0.7943579
0.044330936 0.0413705 0.79666185
0.044117782 0.043343507 0.7928313
0.044150073 0.045548752 0.79341155
0.043990154 0.047549415 0.79053771
0.044086136 0.049823534 0.79226255
0.043867294 0.051735815 0.78832978
0.043873571 0.053903125 0.78844261
0.043609902 0.055726107 0.78370428
0.043507598 0.057737272 0.78186578
0.043189563 0.059441455 0.77615047
0.042946205 0.061220773 0.77177709
0.042577174 0.062790804 0.7651453
0.042424176 0.064653724 0.76239586
0.045945376 -0.0044059567 0.7869336
0.045755923 -0.0022409034 0.78368872
0.045755085 -9.4016235e-05 0.78367436
0.045578387 0.0020449022 0.78064793
0.045627654 0.0041879793 0.78149176
0.045591179 0.0063237869 0.78086704
0.045781676 0.0084983036 0.7841298
0.04587204 0.010667413 0.78567755
0.045954511 0.012842794 0.78709006
0.045999106 0.015013552 0.7878539
0.045918033 0.017141582 0.78646529
0.045999631 0.019330364 0.78786284
0.045855153 0.021421192 0.78538829
0.045886938 0.023589071 0.78593266
0.045681469 0.025626842 0.78241354
0.045776278 0.027827865 0.78403735
0.045781769 0.029979302 0.78413141
0.046035953 0.032305777 0.78848499
0.045946512 0.034398839 0.78695309
0.046112016 0.036686338 0.78978777
0.046111301 0.038849331 0.78977549
0.04632324 0.041201394 0.79340547
0.046161491 0.043223444 0.79063511
0.046122625 0.045351144 0.78996944
0.045930192 0.047316995 0.78667355
0.045951296 0.049494784 0.78703499
0.045861598 0.051550016 0.78549868
0.045860469 0.053700536 0.78547937
0.0456063 0.055542782 0.78112608
0.045439221 0.057471327 0.7782644
0.045157705 0.059234083 0.77344269
0.044923704 0.061034974 0.76943481
0.044515669 0.062569298 0.76244617
0.044346344 0.06441205 0.75954604
