# .PCD v0.7 - Point Cloud Data file format
VERSION 0.7
FIELDS x y z
SIZE 4 4 4
TYPE F F F
COUNT 1 1 1
WIDTH 676
HEIGHT 1
VIEWPOINT 0 0 0 1 0 0 0
POINTS 676
DATA ascii
-0.01749403 -0.023658628 0.95493472
-0.017477138 -0.021022301 0.95401263
-0.017384237 -0.018310968 0.94894147
-0.017364934 -0.015693933 0.94788784
-0.017352508 -0.013087858 0.94720954
-0.017372578 -0.01050515 0.94830513
-0.017344525 -0.0078945355 0.94677383
-0.017357929 -0.005304981 0.94750547
-0.017321724 -0.0027036751 0.94552922
-0.017347004 -0.00011359926 0.94690913
-0.017269067 0.0024692782 0.94265485
-0.017248636 0.0050456682 0.94153953
-0.017197359 0.0076023121 0.93874049
-0.017219128 0.010186835 0.93992883
-0.017158236 0.012716605 0.93660498
-0.017104823 0.015234825 0.93368936
-0.017085269 0.017772291 0.93262196
-0.017067511 0.020306047 0.93165261
-0.017069107 0.02286041 0.93173969
-0.017035747 0.025363211 0.92991877
-0.017054131 0.027940806 0.93092227
-0.016937668 0.030282807 0.9245649
-0.016880732 0.032705307 0.92145705
-0.016814012 0.035090361 0.91781503
-0.01683321 0.03764762 0.918863
-0.016824791 0.040144719 0.91840339
-0.01488537 -0.02367031 0.95540625
-0.014850898 -0.021004256 0.95319372
-0.014761864 -0.018282751 0.94747919
-0.01474489 -0.015669128 0.94638968
-0.014725306 -0.013059162 0.94513273
-0.014755791 -0.010491682 0.94708937
-0.014736305 -0.0078867385 0.94583869
-0.014753453 -0.0053018113 0.94693929
-0.014727553 -0.0027029535 0.94527692
-0.014733671 -0.00011345056 0.94566959
-0.01467954 0.0024680742 0.94219524
-0.014668134 0.0050452589 0.94146317
-0.014620581 0.0075996434 0.938411
-0.01463767 0.010182273 0.9395079
-0.014589777 0.012714283 0.93643391
-0.014550109 0.015238064 0.93388784
-0.014500659 0.01773593 0.93071389
-0.01448558 0.020264491 0.92974603
-0.014521857 0.022868624 0.93207449
-0.014506556 0.02539522 0.93109238
-0.014505022 0.027942957 0.93099397
-0.014400256 0.030273134 0.92426962
-0.014360248 0.032713991 0.92170173
-0.014307453 0.035109404 0.91831315
-0.014303694 0.037615202 0.91807181
-0.014310742 0.040150002 0.91852421
-0.012263074 -0.023660667 0.95501709
-0.012233991 -0.020994529 0.95275229
-0.012157814 -0.018270027 0.94681978
-0.012141752 -0.015655538 0.94556892
-0.012122579 -0.013044557 0.94407576
-0.012145344 -0.010477938 0.94584864
-0.012121959 -0.0078716362 0.94402748
-0.012141472 -0.0052940166 0.9455471
-0.012136287 -0.0027025717 0.94514334
-0.012148963 -0.00011350586 0.94613051
-0.012095072 0.002467389 0.94193363
-0.012085531 0.0050437981 0.94119054
-0.012040547 0.0075937831 0.93768734
-0.012066973 0.010184847 0.93974537
-0.012036715 0.012727248 0.93738884
-0.011993071 0.015239731 0.93399
-0.011933165 0.017709456 0.92932469
-0.011908809 0.020213965 0.92742789
-0.011960267 0.022852942 0.93143535
-0.011931233 0.025342904 0.92917424
-0.011924331 0.027872207 0.92863673
-0.011840725 0.030202914 0.9221257
-0.01183218 0.032705422 0.92146027
-0.011788205 0.035098791 0.91803557
-0.011784093 0.037600599 0.91771537
-0.01178073 0.040103193 0.91745341
-0.0096178809 -0.023589639 0.95215017
-0.0095903436 -0.020921189 0.94942403
-0.0095397569 -0.018223645 0.94441611
-0.009540651 -0.015637917 0.94450462
-0.0095262099 -0.013030728 0.94307494
-0.0095426133 -0.010465201 0.94469887
-0.0095299762 -0.0078668017 0.94344777
-0.0095600439 -0.0052989284 0.94642442
-0.0095475372 -0.0027026944 0.94518632
-0.0095552923 -0.00011348468 0.94595402
-0.0095271766 0.0024706295 0.94317067
-0.0095301354 0.0050559789 0.94346356
-0.0094956709 0.0076129306 0.94005167
-0.0094867256 0.010178568 0.93916607
-0.0094472021 0.012698254 0.93525332
-0.0094033498 0.015189509 0.93091208
-0.0093820235 0.017699474 0.92880082
-0.009364618 0.020206332 0.92707771
-0.0093985293 0.022828395 0.93043482
-0.0093652755 0.025287496 0.92714274
-0.0093685044 0.027836962 0.9274624
-0.0093157617 0.030206691 0.92224103
-0.0093151685 0.032731049 0.92218232
-0.0092889611 0.035158139 0.91958779
-0.0092814825 0.037646983 0.91884744
-0.0092638554 0.040087853 0.9171024
-0.0069885869 -0.023519255 0.94930923
-0.0069744899 -0.020876464 0.94739431
-0.0069398982 -0.018190444 0.9426955
-0.0069497959 -0.015630223 0.94403994
-0.0069472301 -0.013039246 0.94369143
-0.0069538387 -0.010463986 0.94458914
-0.0069329925 -0.0078527071 0.94175744
-0.0069537526 -0.0052885874 0.9445774
-0.0069439625 -0.0026971507 0.94324756
-0.0069558579 -0.00011335384 0.94486338
-0.0069339816 0.0024672796 0.94189179
-0.0069389292 0.0050511574 0.94256383
-0.0069202222 0.0076126964 0.94002277
-0.0069053289 0.010165927 0.93799967
-0.0068746898 0.012679034 0.93383777
-0.0068465117 0.015174792 0.93001014
-0.0068422034 0.017711366 0.92942488
-0.0068295044 0.020219894 0.92769992
-0.0068491562 0.022826787 0.93036938
-0.0068280958 0.025297472 0.92750853
-0.0068302695 0.027847208 0.92780381
-0.006790441 0.030211689 0.92239362
-0.0067860358 0.03271731 0.92179525
-0.0067759869 0.035190348 0.92043024
-0.0067787059 0.037726965 0.92079961
-0.0067557185 0.040112969 0.91767704
-0.0043721185 -0.023434181 0.94587541
-0.004368383 -0.020825183 0.94506723
-0.0043471232 -0.018147457 0.94046783
-0.0043597585 -0.01561634 0.94320136
-0.0043555368 -0.013019855 0.94228804
-0.0043594851 -0.010447957 0.94314224
-0.0043523749 -0.0078514274 0.94160396
-0.0043609766 -0.0052823583 0.94346488
-0.0043564695 -0.0026949842 0.94248986
-0.0043644574 -0.00011327641 0.94421792
-0.004367793 0.0024752631 0.94493955
-0.0043854839 0.0050843996 0.94876689
-0.0043731891 0.0076619689 0.94610697
-0.0043456894 0.010189314 0.94015759
-0.0043223468 0.012696275 0.93510765
-0.004306708 0.015202763 0.93172431
-0.0043100826 0.017769098 0.93245441
-0.0042978819 0.020265991 0.92981482
-0.0043015834 0.022832831 0.93061566
-0.0042852554 0.025285872 0.92708319
-0.004283648 0.027815141 0.9267354
-0.0042631528 0.03020867 0.92230141
-0.0042602657 0.032713108 0.92167687
-0.0042547374 0.035192281 0.92048079
-0.0042562559 0.037727367 0.92080939
-0.0042402647 0.040098663 0.91734976
-0.0017837283 -0.023471016 0.94736218
-0.0017828197 -0.020865122 0.94687963
-0.0017747162 -0.018188132 0.94257575
-0.0017806125 -0.015657831 0.94570738
-0.0017786454 -0.013052666 0.94466263
-0.0017782415 -0.010462422 0.94444805
-0.001772806 -0.0078510717 0.94156122
-0.0017736042 -0.0052740732 0.94198513
-0.0017752971 -0.002696112 0.94288427
-0.0017876963 -0.00011390645 0.94946963
-0.0017999189 0.0025041343 0.95596129
-0.0018186365 0.005176228 0.96590245
-0.0018180092 0.0078195827 0.96556926
-0.0017967516 0.010342361 0.95427907
-0.0017830229 0.012857573 0.94698757
-0.0017767643 0.015397572 0.94366354
-0.0017724062 0.017938593 0.94134885
-0.0017581458 0.020352304 0.93377495
-0.001753942 0.022855565 0.93154228
-0.0017461438 0.025294527 0.92740059
-0.0017447629 0.027813092 0.92666715
-0.0017360809 0.030200632 0.92205602
-0.0017338401 0.032684326 0.92086589
-0.0017308323 0.035145927 0.91926843
-0.0017313355 0.03767518 0.9195357
-0.0017237809 0.040018827 0.91552329
0.00081268558 -0.023504311 0.94870609
0.00081215805 -0.020891799 0.94809026
0.00080894306 -0.018222122 0.94433713
0.00081068237 -0.015668761 0.94636756
0.00080859807 -0.013042604 0.94393438
0.00080741715 -0.010441461 0.94255584
0.00080696144 -0.0078549292 0.94202387
0.00081026583 -0.0052958876 0.94588131
0.00081726559 -0.0027280471 0.95405263
0.00083004805 -0.00011624642 0.96897453
0.00084607262 0.0025872244 0.98768115
0.00086751109 0.005427056 1.0127078
0.00087752449 0.0082959952 1.0243971
nan nan nan
nan nan nan
nan nan nan
nan nan nan
0.00081079867 0.020629728 0.94650334
0.00080105884 0.022943672 0.93513334
0.0007952805 0.025321456 0.92838788
0.00079296529 0.027783619 0.92568517
0.00078880903 0.030160582 0.92083323
0.00078860461 0.032674696 0.92059463
0.00078648585 0.035102069 0.91812122
0.00078775891 0.037678119 0.9196074
0.00078300497 0.039954767 0.91405773
0.0034225145 -0.023579301 0.95173287
0.003421824 -0.020967836 0.95154089
0.0034045966 -0.018268686 0.94675028
0.0034027658 -0.015666669 0.9462412
0.0033889932 -0.013021559 0.9424113
0.003391067 -0.010446248 0.94298798
0.0033968098 -0.0078762835 0.94458491
0.0034431221 -0.0053607346 0.95746344
0.0035159835 -0.0027957358 0.97772473
0.003617015 -0.00012066666 1.0058196
0.0037060364 0.0026995838 1.0305747
0.003794336 0.0056543895 1.0551291
0.003880749 0.008739478 1.0791588
0.0039659254 0.011952496 1.1028446
nan nan nan
nan nan nan
nan nan nan
nan nan nan
0.0034285248 0.023391953 0.95340425
0.0033511473 0.025416896 0.93188709
0.003333308 0.027820872 0.92692637
0.0033142499 0.030186569 0.92162669
0.0033088441 0.032657973 0.9201234
0.0032996794 0.035081178 0.91757488
0.0032953764 0.037545815 0.91637832
0.0032799733 0.039868973 0.91209501
0.0060263118 -0.023565855 0.95119017
0.0060402905 -0.021008726 0.95339656
0.0060084406 -0.018299928 0.94836938
0.0059894347 -0.015652237 0.94536948
0.0059649004 -0.013008925 0.94149697
0.0059842458 -0.010463556 0.94455045
0.0060419496 -0.0079519423 0.9536584
0.0061841253 -0.0054650754 0.97609937
0.0063555948 -0.0028684777 1.0031641
0.0065005622 -0.00012309315 1.0260456
0.0066580856 0.0027528494 1.050909
0.0068393177 0.0057850708 1.0795146
0.0070232716 0.0089774989 1.1085498
0.0071654422 0.012257532 1.1309899
0.0073312223 0.01571111 1.1571566
0.0075174966 0.019360833 1.186558
nan nan nan
nan nan nan
nan nan nan
nan nan nan
0.0058746515 0.027830649 0.92725211
0.0058356579 0.030169234 0.9210974
0.0058231167 0.032622285 0.91911793
0.0058059646 0.035036668 0.91641062
0.0057956148 0.037480209 0.91477704
0.0057690162 0.039802693 0.91057873
0.0086263577 -0.023550285 0.9505617
0.0086494666 -0.021002371 0.95310813
0.0086108223 -0.018309196 0.94884974
0.0085929334 -0.015677221 0.94687855
0.0085694622 -0.013047547 0.94429219
0.0086508971 -0.010560103 0.95326573
0.0088050151 -0.0080902753 0.97024846
0.009044487 -0.0055800606 0.99663651
0.0092135472 -0.0029030817 1.0152657
0.0094198594 -0.00012452727 1.0379997
0.0096708545 0.0027914832 1.0656576
0.009959206 0.0058810879 1.0974318
0.010222968 0.0091228383 1.1264964
0.010445148 0.012474172 1.150979
0.010668473 0.015961358 1.1755879
0.010992289 0.019764055 1.21127
0.011249527 0.023622446 1.2396158
0.011445482 0.02748896 1.2612087
0.011398742 0.030817624 1.2560582
nan nan nan
0.0084498776 0.027946586 0.93111485
0.0083636092 0.030185979 0.92160869
0.0083349468 0.032598592 0.91845036
0.0082985107 0.034961145 0.91443533
0.008285745 0.037408575 0.91302866
0.0082469173 0.039722759 0.90875006
0.011226769 -0.023542698 0.95025551
0.011239263 -0.020962816 0.95131308
0.011218138 -0.018322228 0.949525
0.011226086 -0.015732177 0.95019776
0.011260103 -0.01316893 0.95307702
0.011397349 -0.010686701 0.96469378
0.011641623 -0.0082163606 0.98536956
0.011907378 -0.0056429203 1.0078636
0.012116128 -0.0029324391 1.0255326
0.012363567 -0.0001255442 1.0464764
0.01270138 0.0028161376 1.0750695
0.013085627 0.0059355409 1.1075929
0.013415517 0.0091958772 1.1355155
0.013733776 0.01259853 1.1624535
0.014052272 0.016149048 1.1894116
0.01439349 0.019878646 1.218293
0.014748413 0.02378859 1.2483344
0.015110951 0.027877178 1.2790203
0.015188564 0.031542182 1.2855896
nan nan nan
0.011167668 0.028370934 0.94525313
0.010869419 0.030133577 0.92000878
0.010845263 0.032581333 0.9179641
0.010779913 0.034884583 0.91243279
0.01079618 0.037440572 0.91380966
0.010733174 0.039710812 0.90847671
0.01380727 -0.023504078 0.94869667
0.013804509 -0.020900982 0.94850701
0.013803373 -0.018301077 0.94842893
0.013882577 -0.015792994 0.95387101
0.013989029 -0.013280964 0.96118528
0.014178615 -0.010792139 0.97421175
0.014447751 -0.0082775187 0.99270409
0.01477088 -0.0056823511 1.0149063
0.0150471 -0.0029563233 1.0338854
0.015370161 -0.00012669667 1.0560828
0.015795417 0.0028429418 1.0853021
0.016234783 0.0059778667 1.115491
0.016647827 0.0092635462 1.1438712
0.017055932 0.012701041 1.1719121
0.0174558 0.016284486 1.199387
0.017852439 0.020014843 1.22664
0.018256688 0.023904482 1.254416
0.018615814 0.02787873 1.2790915
0.018773621 0.031648785 1.2899344
nan nan nan
nan nan nan
0.013377352 0.030105678 0.91915703
0.013356027 0.03257167 0.91769183
0.013257625 0.03482715 0.91093057
0.013289052 0.037411086 0.91308993
0.013208068 0.039669234 0.90752554
0.016407825 -0.023506422 0.94879127
0.016412361 -0.020913025 0.94905353
0.016413582 -0.018314494 0.94912428
0.016550004 -0.015845014 0.95701295
0.016707633 -0.013349256 0.96612781
0.016909903 -0.010832158 0.97782427
0.017180372 -0.0082838573 0.99346423
0.017535238 -0.0056771906 1.0139846
0.017855577 -0.0029523859 1.0325084
0.018315095 -0.00012705626 1.0590802
0.018816132 0.0028501477 1.088053
0.019319227 0.0059867287 1.1171447
0.019701382 0.0092260651 1.139243
0.020111963 0.012604292 1.1629851
0.020695515 0.016248401 1.1967293
0.021220298 0.020021945 1.2270752
0.021675689 0.023885282 1.2534084
0.021944858 0.027658194 1.2689732
0.021924518 0.031105638 1.267797
nan nan nan
nan nan nan
0.015938565 0.030187534 0.92165613
0.015881475 0.032595199 0.91835481
0.015746588 0.034812789 0.91055489
0.015733778 0.037276875 0.90981424
0.015629502 0.039505702 0.90378433
0.018984193 -0.023478214 0.9476527
0.019018032 -0.020919379 0.94934189
0.019032044 -0.018332193 0.95004141
0.019227551 -0.01589117 0.95980072
0.019331921 -0.01333382 0.96501064
0.019596023 -0.010836255 0.97819406
0.019911511 -0.0082878452 0.99394256
0.020312086 -0.0056769322 1.0139384
0.020624544 -0.002943886 1.0295358
0.021178121 -0.000126827 1.0571692
0.021736383 0.0028422461 1.0850365
0.022266267 0.0059564104 1.1114873
0.022661461 0.0091610467 1.1312145
0.023042634 0.012466183 1.150242
0.023812642 0.016139103 1.1886792
0.024446728 0.019911908 1.2203314
0.024970679 0.023753367 1.2464861
0.025283415 0.027508328 1.2620972
0.025108876 0.030752027 1.2533846
nan nan nan
nan nan nan
0.018616011 0.030437041 0.92927384
0.018427791 0.032649271 0.91987824
0.018244941 0.034820277 0.91075075
0.018184215 0.037191045 0.90771943
0.018086966 0.039465513 0.90286493
0.021577954 -0.023475714 0.94755179
0.021649089 -0.020948766 0.95067549
0.021670148 -0.018362271 0.95160025
0.021881314 -0.015908929 0.96087325
0.021950034 -0.013318349 0.96389091
0.022242913 -0.010820281 0.9767521
0.022630624 -0.0082864705 0.99377769
0.023058679 -0.0056692972 1.0125748
0.023417376 -0.0029404273 1.0283263
0.02400922 -0.00012648469 1.0543159
0.024576141 0.0028269861 1.079211
0.025238628 0.0059393453 1.1083028
0.025700899 0.0091398936 1.1286025
0.026206667 0.012472364 1.1508123
0.026835406 0.015999839 1.1784221
0.027360786 0.019604525 1.201493
0.027888073 0.023337211 1.2246478
0.028178716 0.026970267 1.2374108
nan nan nan
nan nan nan
nan nan nan
0.021256967 0.030574031 0.9334563
0.020977354 0.03269539 0.92117763
0.020730795 0.034804977 0.91035056
0.020617109 0.037094299 0.9053582
0.020518728 0.039385654 0.90103799
0.024134556 -0.023437666 0.94601607
0.024210759 -0.020911912 0.94900298
0.024239669 -0.018334022 0.95013624
0.024460185 -0.01587427 0.95877993
0.02449484 -0.013266498 0.96013832
0.02476906 -0.010755309 0.97088706
0.025194895 -0.0082347821 0.98757875
0.025671994 -0.0056340531 1.0062799
0.026125982 -0.0029282717 1.0240752
0.026675833 -0.00012544241 1.045628
0.027357187 0.0028089755 1.0723354
0.028064035 0.0058950763 1.1000421
0.028698985 0.0091101574 1.1249306
0.02918978 0.012400361 1.1441686
0.029707886 0.015810503 1.1644771
0.030020015 0.019200174 1.1767118
0.030025437 0.022427781 1.1769243
nan nan nan
nan nan nan
nan nan nan
0.024878995 0.029269652 0.9751963
0.023783406 0.030534582 0.93225187
0.023461986 0.032641273 0.91965294
0.023169471 0.034722261 0.90818709
0.023055244 0.037026756 0.90370965
0.022975963 0.039366599 0.90060204
0.026582142 -0.023311395 0.94091934
0.026623942 -0.020766387 0.94239897
0.026646923 -0.018200418 0.94321239
0.026890049 -0.015759006 0.95181823
0.026978763 -0.013194926 0.95495844
0.027213573 -0.010670928 0.96326995
0.027647873 -0.0081602698 0.9786427
0.02819874 -0.0055884873 0.99814153
0.028718574 -0.0029067309 1.016542
0.029253544 -0.00012422475 1.0354781
0.029905621 0.0027728896 1.0585594
0.030791869 0.0058408845 1.0899297
0.031471342 0.0090214806 1.1139808
0.032054994 0.012297092 1.1346401
0.032373305 0.015558374 1.1459073
0.032444417 0.018738614 1.1484244
0.032202534 0.021721521 1.1398625
nan nan nan
nan nan nan
nan nan nan
0.027160218 0.028855007 0.96138132
0.026141148 0.0303072 0.92530966
0.025865931 0.032496281 0.91556787
0.025559291 0.034589469 0.90471381
0.025476448 0.036947757 0.9017815
0.025353914 0.039228562 0.89744419
0.029062098 -0.023233324 0.93776816
0.029079648 -0.020676823 0.93833447
0.029083796 -0.018108875 0.93846828
0.029290339 -0.01564832 0.94513297
0.029380454 -0.013099343 0.94804078
0.029668681 -0.01060525 0.95734125
0.030054174 -0.0080863712 0.96978021
0.030620094 -0.0055319364 0.98804116
0.031111125 -0.0028705411 1.0038856
0.031646315 -0.00012250643 1.021155
0.032274202 0.002727981 1.0414155
0.033071898 0.005718838 1.0671554
0.03376139 0.0088224448 1.0894036
0.034446936 0.01204657 1.1115247
0.034787714 0.015240848 1.1225208
0.034776803 0.018310208 1.1221688
0.03433428 0.021112235 1.1078895
nan nan nan
nan nan nan
0.030125368 0.026513075 0.97207749
0.029208401 0.028287971 0.94248903
0.028460002 0.030078914 0.91833985
0.028304713 0.032416821 0.91332906
0.028004823 0.034548886 0.90365231
0.027947785 0.036948998 0.90181184
0.027758066 0.039151885 0.89568996
0.031521406 -0.023152769 0.93451673
0.031570699 -0.020624898 0.93597811
0.031491224 -0.018015359 0.93362194
0.031640038 -0.015530781 0.93803376
0.031682517 -0.012978475 0.93929315
0.032071311 -0.010533007 0.95081979
0.032425068 -0.0080157239 0.96130764
0.032965221 -0.0054719183 0.97732157
0.033412635 -0.0028325119 0.99058604
0.033976857 -0.0001208459 1.0073136
0.034486465 0.0026782276 1.022422
0.03508281 0.0055738594 1.0401019
0.035614666 0.008550874 1.0558698
0.036423624 0.011703317 1.0798531
0.036926024 0.014863762 1.0947477
0.037031032 0.01791358 1.0978609
0.035677135 0.020156227 1.0577219
0.03505237 0.022650106 1.0391994
0.032470364 0.023618812 0.96265054
0.031921223 0.025811914 0.94637007
0.031419549 0.027958056 0.93149698
0.030828746 0.029936159 0.91398138
0.030689817 0.032293785 0.90986258
0.03040399 0.03446234 0.90138865
0.030384213 0.036907636 0.90080231
0.030172126 0.039100505 0.89451456
0.034105185 -0.023168873 0.93516672
0.034137599 -0.020626605 0.93605554
0.034000482 -0.017989768 0.93229574
0.034060176 -0.015462878 0.93393254
0.034096327 -0.012918103 0.93492383
0.034508154 -0.01048201 0.94621617
0.034830227 -0.0079635242 0.95504743
0.035249606 -0.0054115914 0.96654677
0.03557422 -0.002789225 0.97544777
0.036162082 -0.00011895681 0.99156702
0.036604751 0.0026291988 1.003705
0.037089836 0.0054500899 1.017006
0.037385967 0.0083018979 1.025126
0.037987605 0.011288984 1.041623
0.038492471 0.014330427 1.0554664
0.038209982 0.01709545 1.0477206
nan nan nan
0.035412479 0.021163929 0.97101277
0.034704488 0.023347676 0.9515996
0.034156181 0.025544483 0.93656498
0.033851989 0.027859822 0.92822409
0.033321828 0.029926516 0.91368699
0.033176154 0.03228775 0.90969259
0.032894511 0.034484562 0.90196991
0.032847896 0.036903109 0.90069181
0.032566994 0.039033838 0.8929894
0.036575761 -0.023111196 0.93283874
0.036667533 -0.020607296 0.93517929
0.036470644 -0.017948514 0.93015778
0.036536042 -0.015427995 0.9318257
0.036510304 -0.012866224 0.93116927
0.036818806 -0.010402485 0.93903744
0.037012964 -0.0078713177 0.94398928
0.037442271 -0.0053465976 0.95493847
0.037715718 -0.0027505218 0.96191251
0.038134247 -0.00011667978 0.97258681
0.038483959 0.0025710487 0.98150599
0.038968716 0.0053261016 0.99386936
0.039192908 0.0080950735 0.99958718
0.03959379 0.010944214 1.0098114
0.039680801 0.013740685 1.0120306
0.03918086 0.016305054 0.99927992
0.037706673 0.018326063 0.96168184
0.037065465 0.020604117 0.9453283
0.036811698 0.023035012 0.93885612
0.036502261 0.025391722 0.93096411
0.036265694 0.027760971 0.92493063
0.035742804 0.029857988 0.91159475
0.035526481 0.032159444 0.90607756
0.035248667 0.034370717 0.89899218
0.035232414 0.036816485 0.89857757
0.03500383 0.039023273 0.8927477
0.039063878 -0.023071416 0.93123305
0.039150726 -0.020565959 0.93330336
0.038963992 -0.017923314 0.9288519
0.039001357 -0.015393506 0.92974257
0.038958699 -0.01283246 0.92872566
0.039171588 -0.010344473 0.9338007
0.039246317 -0.0078012152 0.9355821
0.039506674 -0.0052729738 0.94178873
0.039643284 -0.0027022914 0.94504535
0.039969072 -0.00011430739 0.95281172
0.040224835 0.0025118554 0.9589088
0.040514939 0.0051758103 0.96582448
0.040430896 0.0078054243 0.96382099
0.04048517 0.010459797 0.96511477
0.04039567 0.013074725 0.96298122
0.040194374 0.015634477 0.95818263
0.039717529 0.01804276 0.94681519
0.039386474 0.020464515 0.9389233
0.039128769 0.022885932 0.93277997
0.038961444 0.025332455 0.92879117
0.038647499 0.027652215 0.92130709
0.038115755 0.029760914 0.90863097
0.037902683 0.032069791 0.90355164
0.037697375 0.034357913 0.89865732
0.037688725 0.036811307 0.89845115
0.037466146 0.039040647 0.89314514
0.041491631 -0.023003042 0.92847329
0.041649126 -0.020537186 0.9319976
0.041493256 -0.017916711 0.92850965
0.041518744 -0.015382537 0.92908007
0.041430075 -0.012809942 0.92709589
0.041619416 -0.010317135 0.93133283
0.041564263 -0.0077554923 0.93009865
0.04171646 -0.0052265907 0.9335044
0.041685678 -0.0026673214 0.93281561
0.041923221 -0.00011254619 0.93813121
0.042040933 0.0024643284 0.94076526
0.042254981 0.0050671874 0.94555509
0.042212229 0.0076497514 0.94459838
0.042130608 0.010217648 0.94277191
0.042143207 0.012804165 0.9430539
0.042150233 0.015390189 0.94321108
0.041992217 0.017906697 0.93967509
0.041708808 0.020342676 0.93333322
0.04150226 0.022786103 0.92871118
0.041309249 0.025212472 0.9243921
0.040980071 0.027523719 0.91702592
0.040431246 0.029633624 0.90474474
0.040216785 0.031941801 0.89994562
0.040041629 0.034257315 0.89602607
0.040073618 0.036741275 0.89674193
0.03995676 0.039083563 0.89412695
0.043933079 -0.022949722 0.92632115
0.044069629 -0.020475546 0.92920029
0.043940868 -0.017877651 0.92648542
0.044006541 -0.015362505 0.92787015
0.043901995 -0.012790182 0.9256658
0.044044238 -0.01028758 0.92866498
0.043939292 -0.007725087 0.92645222
0.044024009 -0.0051971073 0.92823845
0.043940932 -0.0026492244 0.92648673
0.044059776 -0.00011144984 0.92899257
0.04405275 0.0024331019 0.92884439
0.044234924 0.0049982201 0.93268555
0.044206016 0.0075483406 0.93207604
0.04424588 0.010110836 0.93291652
0.044354673 0.012697672 0.93521047
0.044382989 0.015269387 0.93580747
0.044237252 0.017774437 0.93273461
0.043903276 0.020176148 0.9256928
0.043694686 0.02260414 0.92129469
0.043512631 0.025023296 0.91745615
0.04325683 0.02737475 0.91206264
0.042859927 0.029599208 0.90369397
0.042681828 0.031941559 0.89993882
0.042485531 0.034248665 0.89579988
0.042458978 0.036679737 0.89524001
0.042325452 0.03900915 0.89242464
0.046317142 -0.022873888 0.92326027
0.046431266 -0.020394782 0.92553514
0.046338029 -0.017823452 0.92367667
0.046476033 -0.01533862 0.92642754
0.04639798 -0.012779209 0.92487168
0.046520907 -0.010272703 0.92732203
0.046367835 -0.0077068978 0.92427081
0.046413742 -0.0051800162 0.92518586
0.046286769 -0.0026382674 0.92265487
0.046299811 -0.00011072071 0.9229148
0.046268612 0.0024159402 0.92229289
0.046475384 0.0049646148 0.92641461
0.04647132 0.0075018359 0.92633361
0.046440888 0.010032917 0.92572701
0.046446547 0.012570443 0.92583978
0.04647788 0.015116936 0.92646432
0.046412785 0.017630223 0.92516679
0.046107017 0.020031838 0.91907173
0.045889296 0.022443118 0.9147318
0.045655102 0.024821665 0.91006351
0.04551895 0.027233293 0.90734959
0.045290805 0.029569989 0.90280187
0.045138791 0.031935629 0.89977169
0.044927407 0.034239423 0.89555806
0.044873677 0.036648888 0.89448708
0.044765294 0.039004866 0.89232659
