# .PCD v0.7 - Point Cloud Data file format
VERSION 0.7
FIELDS x y z
SIZE 4 4 4
TYPE F F F
COUNT 1 1 1
WIDTH 1089
HEIGHT 1
VIEWPOINT 0 0 0 1 0 0 0
POINTS 1089
DATA ascii
-0.028298162 -0.0045585404 0.8141861
-0.028164525 -0.002317114 0.81034112
-0.028170023 -9.7234384e-05 0.81049931
-0.028073672 0.0021158361 0.80772716
-0.028171221 0.0043436144 0.81053376
-0.028004635 0.006525225 0.80574083
-0.027993705 0.0087291133 0.80542636
-0.027878683 0.010890616 0.80211699
-0.027840827 0.013070213 0.80102777
-0.027855191 0.015272473 0.80144107
-0.027870603 0.017477656 0.80188447
-0.027982695 0.019753516 0.80510956
-0.027904352 0.021897603 0.80285549
-0.027974967 0.024157977 0.80488724
-0.027848246 0.026243515 0.80124122
-0.027937049 0.028529167 0.80379623
-0.027837314 0.030621428 0.80092669
-0.02792109 0.032914296 0.8033371
-0.027826577 0.034996144 0.80061781
-0.027946765 0.037350029 0.80407578
-0.027813489 0.039364144 0.80024123
-0.027695147 0.041379556 0.79683632
-0.027412146 0.043117318 0.7886939
-0.027451167 0.045342371 0.78981662
-0.027386043 0.047393341 0.78794289
-0.027458981 0.049683854 0.79004145
-0.027424626 0.051783275 0.78905296
-0.027495306 0.054083884 0.79108655
-0.02737456 0.056004006 0.7876125
-0.02734196 0.058092382 0.78667456
-0.027085951 0.059683334 0.77930874
-0.027122367 0.061901327 0.78035647
-0.027080638 0.063940562 0.77915585
-0.02603543 -0.0045528924 0.81317729
-0.025937261 -0.0023164563 0.81011111
-0.025974955 -9.7329052e-05 0.81128842
-0.02586153 0.0021158848 0.80774575
-0.025937196 0.0043413383 0.81010908
-0.025790686 0.0065235426 0.80553305
-0.025730129 0.0087097716 0.80364168
-0.025633441 0.010870314 0.80062175
-0.025621835 0.013057672 0.80025923
-0.025687128 0.015288814 0.80229861
-0.025706286 0.017499723 0.80289692
-0.025769427 0.019747615 0.80486906
-0.025723729 0.021913594 0.80344176
-0.025777316 0.024164826 0.80511546
-0.025697822 0.026289087 0.80263257
-0.025779516 0.02857843 0.80518419
-0.025676075 0.030660681 0.80195338
-0.025722694 0.032917257 0.8034094
-0.025572795 0.034913521 0.79872757
-0.025660641 0.03722905 0.80147129
-0.025585283 0.039308872 0.79911762
-0.025544856 0.041432451 0.7978549
-0.025318136 0.043231018 0.79077369
-0.025337601 0.045432217 0.79138166
-0.025264177 0.04746224 0.78908837
-0.025294447 0.049683373 0.79003382
-0.025243131 0.051742461 0.78843105
-0.02525172 0.053920671 0.78869927
-0.025167191 0.055893552 0.78605914
-0.025081081 0.057848331 0.78336966
-0.024931611 0.059636801 0.77870119
-0.024930337 0.061766867 0.77866137
-0.024915149 0.06386105 0.77818698
-0.023748552 -0.0045415689 0.8111549
-0.023749765 -0.0023195595 0.81119633
-0.023807088 -9.7552889e-05 0.81315422
-0.023618869 0.0021132121 0.80672544
-0.023646981 0.004328351 0.80768561
-0.023498928 0.0065000225 0.80262876
-0.023473937 0.0086895423 0.80177516
-0.02337797 0.010841469 0.79849726
-0.023384329 0.013032466 0.79871446
-0.023438346 0.015255673 0.80055946
-0.02344601 0.017454481 0.80082124
-0.023487099 0.019682733 0.8022247
-0.023438206 0.02183485 0.80055469
-0.023478722 0.024069475 0.80193859
-0.023415091 0.026195168 0.79976517
-0.023476865 0.028460983 0.80187517
-0.023404021 0.030562565 0.7993871
-0.023415623 0.032768693 0.79978335
-0.023291865 0.034774899 0.79555631
-0.023370573 0.03707917 0.79824466
-0.023382042 0.039285202 0.79863638
-0.023314197 0.041352697 0.79631907
-0.02311651 0.043165043 0.78956687
-0.023145033 0.045383964 0.79054111
-0.023121262 0.047500785 0.78972918
-0.023136644 0.049697254 0.79025453
-0.022999778 0.051555339 0.7855798
-0.023015384 0.053743843 0.78611279
-0.022973167 0.055794835 0.78467083
-0.022962062 0.057916407 0.78429157
-0.022821065 0.059696116 0.77947563
-0.022785887 0.061736148 0.77827412
-0.022757972 0.063789956 0.77732062
-0.021532921 -0.0045429398 0.81139976
-0.021484809 -0.0023149571 0.80958676
-0.021530507 -9.7331489e-05 0.81130874
-0.021407921 0.0021131178 0.8066895
-0.021476358 0.004336833 0.80926836
-0.021374084 0.0065225819 0.80541444
-0.021288671 0.0086941021 0.80219591
-0.021168778 0.010830348 0.79767817
-0.021155288 0.013007264 0.79716986
-0.021230884 0.015245363 0.80001843
-0.021250101 0.017452767 0.80074257
-0.021263629 0.019658877 0.80125231
-0.021227907 0.021817164 0.79990625
-0.021239314 0.024021378 0.80033612
-0.021185996 0.026148062 0.79832697
-0.02119657 0.028349189 0.79872543
-0.021163585 0.030489745 0.79748243
-0.021207353 0.032741994 0.79913175
-0.021104807 0.034762282 0.79526764
-0.021109689 0.03694943 0.79545158
-0.021150222 0.03920367 0.79697895
-0.021140065 0.041367088 0.79659617
-0.021027088 0.043316595 0.79233903
-0.020968558 0.045360565 0.79013354
-0.020934114 0.047447037 0.78883559
-0.020939095 0.049619824 0.78902328
-0.020862333 0.051591501 0.78613079
-0.02088896 0.053813666 0.78713411
-0.020880591 0.055947565 0.78681874
-0.020895472 0.058144432 0.78737944
-0.020756431 0.05990018 0.7821402
-0.020689139 0.061841678 0.77960449
-0.020634552 0.063808575 0.77754754
-0.01929356 -0.0045390432 0.81070375
-0.019234389 -0.0023110413 0.80821741
-0.019262021 -9.7099932e-05 0.80937856
-0.019170932 0.0021101357 0.80555105
-0.01922825 0.0043298188 0.8079595
-0.019122288 0.0065071345 0.80350697
-0.019084241 0.0086909849 0.80190831
-0.018999215 0.010839274 0.79833555
-0.018990129 0.013020054 0.79795378
-0.019022485 0.015231927 0.79931337
-0.019015361 0.017415091 0.79901397
-0.019033588 0.019622752 0.79977995
-0.019010177 0.021786887 0.79879618
-0.019019186 0.023986522 0.79917479
-0.018966381 0.026103156 0.79695588
-0.018970326 0.028292267 0.79712164
-0.018951597 0.030445864 0.79633468
-0.019017434 0.032740738 0.79910111
-0.018948121 0.034802541 0.79618865
-0.018949786 0.036986917 0.79625863
-0.018963641 0.039196871 0.79684073
-0.018972751 0.041399669 0.79722357
-0.01885229 0.04330691 0.79216188
-0.018794589 0.045337815 0.78973728
-0.018742584 0.047369834 0.78755206
-0.018790254 0.049653269 0.78955513
-0.018691115 0.051542841 0.78538936
-0.018764159 0.05390422 0.78845865
-0.018684015 0.055824716 0.78509104
-0.018751949 0.058186244 0.78794563
-0.018603733 0.059867818 0.78171766
-0.018611757 0.062036049 0.78205484
-0.018524986 0.063879251 0.77840877
-0.01708244 -0.0045416411 0.81116778
-0.016982164 -0.0023058625 0.8064062
-0.01699914 -9.6840049e-05 0.80721229
-0.016964935 0.0021102326 0.80558801
-0.016976535 0.0043200622 0.80613887
-0.016874626 0.0064892592 0.80129969
-0.016864786 0.0086793248 0.80083239
-0.016850103 0.010863708 0.8001352
-0.01684615 0.013052586 0.7999475
-0.016857656 0.015254422 0.80049384
-0.016847653 0.017436994 0.80001891
-0.016874686 0.01966011 0.80130255
-0.016860541 0.021836927 0.80063087
-0.016842021 0.024003828 0.7997514
-0.016781854 0.02610114 0.79689437
-0.016775576 0.02827362 0.79659629
-0.016785711 0.030474262 0.79707748
-0.016850833 0.032784529 0.80016989
-0.01679237 0.034855213 0.79739368
-0.016766421 0.036982406 0.79616153
-0.016773907 0.039180949 0.79651701
-0.016811496 0.041455664 0.79830188
-0.01673005 0.043431144 0.79443437
-0.016648181 0.045384292 0.79054683
-0.016598295 0.047407486 0.78817803
-0.016614728 0.049615737 0.78895831
-0.016572351 0.051645 0.786946
-0.016616171 0.053943068 0.78902686
-0.016519811 0.055779211 0.78445113
-0.016487088 0.057813447 0.78289729
-0.016357355 0.059486359 0.7767368
-0.016400978 0.061778519 0.7788083
-0.016363092 0.063764401 0.77700925
-0.01484809 -0.0045379167 0.81050259
-0.014769079 -0.0023052432 0.80618966
-0.014792627 -9.6871569e-05 0.80747503
-0.014754841 0.0021097728 0.80541247
-0.01475115 0.0043150899 0.80521101
-0.014649189 0.0064758612 0.7996453
-0.014659918 0.0086728064 0.80023098
-0.014674938 0.010876141 0.80105084
-0.01467631 0.013071812 0.80112576
-0.014654153 0.015243416 0.79991627
-0.014593941 0.01736312 0.79662955
-0.014625166 0.019587275 0.79833394
-0.014631488 0.021783695 0.79867911
-0.014639145 0.023984188 0.799097
-0.014613236 0.026126962 0.79768276
-0.014633833 0.028352087 0.79880708
-0.014653876 0.030582221 0.79990119
-0.014669061 0.032807481 0.80073005
-0.014604397 0.03484676 0.79720026
-0.014587616 0.036988106 0.79628426
-0.014556885 0.039086983 0.79460675
-0.014571265 0.04130454 0.79539174
-0.014502982 0.043279711 0.79166436
-0.014475107 0.045361098 0.79014283
-0.014429303 0.047375277 0.78764254
-0.014458782 0.049634188 0.78925169
-0.014420528 0.051659279 0.78716356
-0.014442126 0.053896282 0.78834254
-0.014324662 0.055599984 0.78193057
-0.014318096 0.057715587 0.7815721
-0.014234856 0.059508692 0.77702838
-0.014271808 0.061797332 0.77904546
-0.014230871 0.063748121 0.77681082
-0.012627427 -0.0045378013 0.81048197
-0.012565915 -0.0023062271 0.80653375
-0.012587459 -9.6924538e-05 0.80791658
-0.012548307 0.0021097497 0.80540365
-0.012536741 0.0043121437 0.80466127
-0.012465157 0.006479274 0.80006671
-0.012476766 0.0086791022 0.80081183
-0.012495322 0.010889066 0.80200285
-0.012481015 0.013071139 0.80108458
-0.012454591 0.015233359 0.79938853
-0.012405239 0.017354215 0.79622096
-0.012431412 0.019576648 0.79790086
-0.012432312 0.021764042 0.79795855
-0.012452283 0.023988491 0.79924041
-0.01242397 0.026118461 0.79742318
-0.01244743 0.028356412 0.79892892
-0.012473505 0.030609036 0.80060256
-0.012476844 0.032811034 0.80081683
-0.012411444 0.034821358 0.79661918
-0.012386443 0.036929127 0.79501456
-0.012356468 0.039012402 0.79309064
-0.012357887 0.041189771 0.79318166
-0.012320453 0.043231312 0.79077905
-0.012298293 0.045315966 0.78935671
-0.012265248 0.047350809 0.78723574
-0.012265059 0.049506642 0.78722358
-0.012266869 0.051670842 0.78733975
-0.012277053 0.053872414 0.78799343
-0.012229809 0.055815473 0.7849611
-0.012198214 0.057816099 0.78293324
-0.012131652 0.059633721 0.77866095
-0.012141384 0.061816383 0.77928561
-0.012131013 0.063896582 0.77861995
-0.010403298 -0.0045361249 0.81018251
-0.01036244 -0.0023075619 0.80700058
-0.010395348 -9.7122109e-05 0.8095634
-0.010345026 0.0021103802 0.80564439
-0.010349726 0.004319374 0.80601048
-0.010296132 0.006493608 0.80183673
-0.010298299 0.0086920373 0.80200541
-0.010302436 0.010893475 0.80232757
-0.010279587 0.013062388 0.8005482
-0.010265505 0.01523456 0.79945153
-0.010217884 0.017343797 0.79574293
-0.01023581 0.019557955 0.79713893
-0.010238281 0.021746937 0.79733145
-0.010278709 0.024025692 0.80047983
-0.010293867 0.026257239 0.80166024
-0.010342193 0.028586935 0.8054238
-0.010376459 0.03089539 0.80809236
-0.010369553 0.033087093 0.80755454
-0.0102684 0.034955021 0.79967701
-0.010231644 0.037012737 0.7968145
-0.01018168 0.039004181 0.79292351
-0.010185267 0.04119087 0.79320282
-0.010149824 0.043212917 0.79044259
-0.010146327 0.04536267 0.79017025
-0.010101123 0.047315571 0.78664988
-0.010092981 0.049430691 0.78601581
-0.010084962 0.051542971 0.78539133
-0.01011521 0.053855564 0.78774697
-0.010099011 0.055923861 0.78648537
-0.010072239 0.057924449 0.78440046
-0.010033748 0.059843712 0.78140289
-0.010042365 0.062037565 0.78207392
-0.010018404 0.0640269 0.78020793
-0.0081640556 -0.0045251623 0.80822456
-0.0081376471 -0.0023035861 0.80561012
-0.0081698485 -9.7030286e-05 0.80879802
-0.0081263902 0.0021073713 0.80449569
-0.0081368657 0.0043168142 0.80553275
-0.0081071015 0.0064996779 0.8025862
-0.0081145167 0.0087062875 0.80332023
-0.0081206718 0.010915226 0.80392963
-0.0081024282 0.013088092 0.80212355
-0.0080955215 0.015272448 0.80143976
-0.008064351 0.017400706 0.79835397
-0.0080832783 0.019633738 0.8002277
-0.0080918008 0.021848943 0.80107141
-0.0081346743 0.02417084 0.80531585
-0.0081459926 0.026413674 0.80643636
-0.0082072178 0.028838001 0.8124975
-0.0085211601 0.032252062 0.84357715
-0.0085581597 0.034713086 0.84724003
-0.0082457792 0.035682287 0.81631494
-0.0081487093 0.03747217 0.80670524
-0.0080995886 0.039442908 0.80184245
-0.0081060845 0.041672919 0.80248553
-0.0080746831 0.043701347 0.79937685
-0.0080418549 0.045704637 0.7961269
-0.0079723028 0.047471449 0.78924143
-0.0079327952 0.04938757 0.78533018
-0.0079165818 0.051433623 0.78372514
-0.0079401322 0.053739995 0.78605652
-0.0079467846 0.0559402 0.78671515
-0.0079340637 0.058002379 0.78545576
-0.0078953337 0.059860464 0.78162163
-0.0078970995 0.062015552 0.78179646
-0.0078827003 0.064040273 0.78037089
-0.0059408024 -0.0045182011 0.80698121
-0.0059313704 -0.0023038432 0.8057
-0.0059568761 -9.7074269e-05 0.80916464
-0.0059369137 0.0021124983 0.80645299
-0.0059456788 0.0043281261 0.80764359
-0.005925626 0.0065185754 0.80491972
-0.0059234235 0.0087203793 0.8046205
-0.0059192185 0.010916851 0.80404931
-0.0059053088 0.013088685 0.80215985
-0.0058979243 0.015267056 0.80115682
-0.005889066 0.017435569 0.79995352
-0.0059128804 0.019706378 0.80318838
-0.0059374291 0.021997634 0.80652303
-0.0060377433 0.024616055 0.82014936
-0.0061890092 0.02753583 0.84069693
nan nan nan
nan nan nan
nan nan nan
nan nan nan
nan nan nan
nan nan nan
nan nan nan
-0.0062159323 0.046160221 0.84435409
-0.0060049333 0.046827875 0.81569254
-0.0058599585 0.047877941 0.79599965
-0.0058011478 0.049556158 0.78801095
-0.0057679312 0.051418774 0.78349888
-0.0057870569 0.053742755 0.78609687
-0.0057879812 0.055905163 0.78622246
-0.005791672 0.058096018 0.78672379
-0.0057596508 0.059918098 0.78237414
-0.0057545248 0.062006146 0.78167784
-0.0057389168 0.063973539 0.7795577
-0.0037263224 -0.0045136153 0.80616218
-0.0037203771 -0.0023014869 0.80487597
-0.0037383584 -9.7026452e-05 0.80876607
-0.0037248116 0.0021108803 0.80583531
-0.0037282899 0.0043224683 0.80658782
-0.0037127514 0.0065048602 0.80322617
-0.0037220761 0.0087271314 0.80524349
-0.0037213357 0.010930891 0.80508333
-0.0037162837 0.013118553 0.80399036
-0.0037124073 0.015305071 0.80315173
-0.0037213806 0.017547589 0.80509305
-0.0037757673 0.020041794 0.81685919
nan nan nan
nan nan nan
nan nan nan
nan nan nan
-0.0049365787 0.040832005 1.0679921
-0.004981718 0.044157848 1.0777577
-0.00491822 0.046509847 1.0640204
nan nan nan
nan nan nan
nan nan nan
nan nan nan
nan nan nan
-0.003824872 0.049771588 0.82748264
-0.0036855559 0.050143007 0.79734266
-0.003637437 0.051644113 0.78693247
-0.0036347592 0.053760275 0.78635317
-0.0036332624 0.055891432 0.78602934
-0.0036431265 0.058202323 0.78816336
-0.0036232774 0.060032591 0.78386915
-0.003614428 0.062028103 0.78195465
-0.0036068829 0.064036287 0.78032231
-0.0015185325 -0.0045155804 0.80651313
-0.0015147242 -0.0023003847 0.80449051
-0.0015215666 -9.6949494e-05 0.8081246
-0.0015150005 0.002107742 0.80463719
-0.0015163661 0.004315902 0.80536252
-0.0015104727 0.0064968127 0.80223244
-0.0015157908 0.0087251104 0.80505699
-0.0015140467 0.010917956 0.80413067
-0.0015159817 0.013137611 0.80515838
-0.0015164049 0.015347594 0.80538315
-0.0015421784 0.017852265 0.81907183
nan nan nan
nan nan nan
nan nan nan
-0.0019974755 0.034747817 1.0608863
-0.0020283789 0.038236629 1.0772995
-0.0020410796 0.041445747 1.0840449
-0.0020463883 0.044530969 1.0868645
-0.0020202952 0.046902623 1.073006
-0.001984247 0.048952747 1.0538604
-0.0019371625 0.050609645 1.0288532
-0.0018995956 0.052392032 1.0089009
-0.0018496168 0.053704709 0.98235643
nan nan nan
-0.0016722087 0.053419575 0.88813263
-0.0015572363 0.052012444 0.82706922
-0.0014963377 0.052155524 0.79472518
-0.0014873556 0.054006498 0.78995466
-0.0014836702 0.056031369 0.78799731
-0.0014835299 0.058184557 0.7879228
-0.0014736907 0.05994283 0.78269708
-0.001471057 0.06197603 0.78129822
-0.0014701691 0.064077668 0.78082663
0.00068990653 -0.0045092208 0.8053773
0.00068862736 -0.0022986503 0.80388403
0.00069244584 -9.6975535e-05 0.80834162
0.00068802602 0.0021039301 0.80318201
0.00068840274 0.0043065734 0.80362183
0.00068545598 0.0064802058 0.80018181
0.0006885429 0.0087113297 0.80378544
0.00068967772 0.010931255 0.80511016
0.00069326808 0.013205213 0.8093015
0.00070269255 0.015631916 0.82030332
nan nan nan
0.00087424036 0.025039714 1.0205634
0.0008905353 0.028354334 1.0395856
0.00091396162 0.032023042 1.0669328
0.00092202233 0.035254072 1.0763427
0.00093106413 0.038577303 1.0868979
0.000928391 0.041435514 1.0837773
0.00092583668 0.044282306 1.0807954
0.00091120944 0.046496715 1.06372
0.00089427282 0.048492339 1.0439487
0.00087729236 0.050377119 1.0241262
0.00086429616 0.05239483 1.0089548
0.00084052613 0.05364183 0.9812063
0.00081490079 0.054612469 0.95129204
0.00078661361 0.055232309 0.91827041
0.0007463182 0.054789651 0.87123066
0.00069888995 0.053542823 0.81586426
0.00068112719 0.054360218 0.79512852
0.00067445927 0.055984955 0.78734457
0.00067217066 0.05794457 0.78467292
0.00066894747 0.059805986 0.78091025
0.00066884817 0.061936066 0.78079438
0.00066902448 0.064091913 0.7810002
0.0028983422 -0.0045125457 0.80597109
0.0028939017 -0.0023010874 0.80473626
0.0029085518 -9.7031734e-05 0.80881011
0.0028934644 0.0021076826 0.8046146
0.002897708 0.0043182177 0.80579472
0.0028907158 0.006509915 0.80385029
0.0029004959 0.0087415073 0.80656993
0.0029058929 0.010971453 0.80807078
0.0029419516 0.013348743 0.81809795
nan nan nan
nan nan nan
0.0037021041 0.025258515 1.0294812
0.0037634214 0.028543804 1.0465323
0.0038356076 0.032013226 1.0666058
0.0038586902 0.035145395 1.0730246
0.0038728341 0.0382245 1.0769578
0.0038416756 0.040843517 1.0682932
0.0038223453 0.043549828 1.0629178
0.0037587513 0.045688648 1.0452336
0.00370872 0.047905769 1.0313209
0.0036565287 0.050017115 1.0168076
0.0036209396 0.052288692 1.0069109
0.0035172231 0.053470343 0.97806948
0.0034114346 0.054460894 0.94865179
0.0033058294 0.05529334 0.91928512
0.0032036966 0.056025602 0.89088398
0.0030460972 0.05559003 0.84705877
0.0029094189 0.055312067 0.80905128
0.0028390239 0.0561365 0.78947586
0.0028162377 0.057831328 0.78313947
0.0027969193 0.059565287 0.77776736
0.0027988232 0.061737943 0.77829677
0.0027953736 0.063791342 0.77733755
0.0051036743 -0.0045102523 0.80556148
0.0050939489 -0.0022990576 0.80402642
0.0051164064 -9.6883094e-05 0.80757111
0.0050931429 0.0021058088 0.80389923
0.0051038321 0.0043171016 0.8055864
0.0050995848 0.0065185456 0.80491602
0.0051325937 0.0087800492 0.81012613
0.0051863864 0.011114639 0.81861675
0.005385614 0.013870306 0.85006273
nan nan nan
nan nan nan
0.0064158803 0.024846282 1.0126795
0.0065248595 0.028089635 1.0298806
0.0066626039 0.031563506 1.0516222
0.0067007616 0.034641653 1.057645
0.0067020915 0.037546482 1.0578549
0.0066675558 0.040236026 1.0524038
0.0066136653 0.042770538 1.0438977
0.00654383 0.045148436 1.0328749
0.0064728465 0.047457516 1.0216709
0.0063755549 0.049500961 1.0063145
0.0063042492 0.051673256 0.99505961
0.0061417907 0.052997332 0.96941727
0.0059668007 0.05406737 0.94179696
0.0057943235 0.055009928 0.91457319
0.0056423382 0.056006733 0.89058393
0.0054614074 0.056572277 0.86202592
0.00522399 0.056371804 0.82455206
0.0050140019 0.056273863 0.79140764
0.0049556708 0.057762004 0.78220069
0.0049244398 0.059527289 0.77727121
0.0049224324 0.061631456 0.77695435
0.0049078465 0.063570969 0.77465212
0.0072909347 -0.004498194 0.80340779
0.0072745751 -0.0022921341 0.80160511
0.0073086456 -9.6617761e-05 0.80535942
0.0072893421 0.0021040619 0.80323231
0.0073176227 0.0043211863 0.80634862
0.0073259133 0.0065375459 0.80726218
0.0074262694 0.008868861 0.81832069
0.0075661526 0.011319902 0.83373481
0.0080060605 0.014394838 0.88220948
0.0085914675 0.01804089 0.94671702
0.0088226441 0.021189611 0.97219104
0.0090129199 0.024367318 0.99315798
0.0091636786 0.027541138 1.0097705
0.0092942193 0.030739108 1.0241551
0.0093690185 0.03381471 1.0323975
0.0093837129 0.03670039 1.0340167
0.0093697347 0.039474152 1.0324764
0.0093392301 0.042164858 1.029115
0.0092383521 0.044498183 1.0179989
0.0091485539 0.046827313 1.0081038
0.0089936908 0.048749555 0.9910391
0.0088806516 0.050817627 0.97858298
0.008683227 0.052309103 0.9568283
0.0085075144 0.053818733 0.93746597
0.0082606357 0.054750599 0.91026175
0.0080468357 0.055762645 0.8867026
0.0078121624 0.056494668 0.8608433
0.0075711091 0.057036936 0.83428097
0.007240593 0.056732699 0.7978605
0.0071257795 0.057984147 0.78520888
0.007064458 0.059617698 0.77845174
0.0070511289 0.061633725 0.77698296
0.0070211901 0.063491508 0.77368391
0.0094784312 -0.0044918396 0.80227286
0.0094529362 -0.0022878728 0.80011493
0.0094938762 -9.6404307e-05 0.80358016
0.0094708931 0.0020998772 0.80163485
0.009519917 0.0043181619 0.80578429
0.0095339585 0.0065352023 0.8069728
0.0097020157 0.0089000389 0.82119751
0.0098624136 0.01133401 0.8347739
0.010395829 0.014357533 0.87992316
0.011088419 0.017885169 0.93854535
0.011437749 0.021100733 0.9681133
0.011670439 0.024236072 0.98780864
0.011810088 0.027264526 0.99962878
0.011894044 0.03021626 1.0067351
0.012037366 0.033371508 1.0188661
0.012036161 0.036159031 1.0187641
0.012029708 0.038929015 1.0182179
0.01192199 0.041344825 1.0091004
0.011807548 0.043685801 0.99941385
0.011672698 0.045893464 0.98799986
0.011473824 0.047772031 0.97116679
0.011316073 0.049739122 0.95781446
0.011095449 0.051342122 0.93914044
0.010930072 0.053111259 0.92514253
0.010658066 0.054260857 0.90211946
0.010403874 0.05537913 0.88060415
0.010131427 0.056278124 0.85754371
0.0099061579 0.057323769 0.83847648
0.009520839 0.057301681 0.80586237
0.0093131755 0.058211323 0.78828526
0.0092299404 0.059831247 0.78124011
0.0092059113 0.061810084 0.77920622
0.0091564236 0.06360095 0.7750175
0.01166099 -0.0044859778 0.8012259
0.011648891 -0.0022886724 0.80039454
0.011702639 -9.6465184e-05 0.80408764
0.011686301 0.0021033618 0.80296504
0.011754554 0.0043281852 0.80765468
0.011759914 0.0065437071 0.80802298
0.01196885 0.0089128437 0.82237893
0.012077905 0.011267457 0.82987213
0.012628216 0.014157828 0.86768395
0.013403449 0.017549871 0.92095017
0.013840439 0.020727208 0.95097572
0.014122747 0.023808287 0.97037309
0.014244114 0.026694033 0.9787122
0.014367081 0.02962877 0.98716128
0.014483754 0.032595631 0.99517781
0.014518941 0.035407692 0.99759555
0.014436938 0.03792515 0.99196112
0.014352414 0.04040464 0.98615348
0.014222816 0.042716935 0.97724879
0.014084647 0.044953085 0.96775526
0.013892979 0.046956405 0.95458579
0.0137396 0.049024187 0.94404709
0.013492188 0.050681006 0.92704743
0.013309315 0.052499261 0.91448218
0.013023126 0.053821698 0.89481819
0.012759087 0.055132102 0.87667608
0.0124138 0.055976745 0.85295141
0.012207272 0.057343211 0.83876085
0.011821798 0.057757657 0.81227499
0.011546084 0.058583908 0.79333073
0.011414715 0.060065925 0.78430438
0.011364915 0.061943065 0.78088266
0.011289937 0.063659497 0.77573091
0.013871307 -0.0044909599 0.80211574
0.013837454 -0.0022879967 0.8001582
0.013889127 -9.6352247e-05 0.80314624
0.013870566 0.0021010248 0.80207294
0.013964501 0.004327382 0.80750477
0.014000437 0.0065563391 0.80958283
0.01421028 0.0089056706 0.82171708
0.01428936 0.011218821 0.82628995
0.014743745 0.013911135 0.85256499
0.0155307 0.017113879 0.89807105
0.016106816 0.020300219 0.93138528
0.016481349 0.023383087 0.95304286
0.016642243 0.026247671 0.96234667
0.016758662 0.029086037 0.96907866
0.016914971 0.032036841 0.97811735
0.016901642 0.034688994 0.97734654
0.016779335 0.037096001 0.97027403
0.016657352 0.039465025 0.96322036
0.016547827 0.041826893 0.95688701
0.016436761 0.044149917 0.95046455
0.016236957 0.046185348 0.93891078
0.016043998 0.048178028 0.92775285
0.015785901 0.04990365 0.91282821
0.015596647 0.051776044 0.9018845
0.015321931 0.053291235 0.8859989
0.015064129 0.054780893 0.87109137
0.014717233 0.055850778 0.85103196
0.014432307 0.057055734 0.83455592
0.014028431 0.05768133 0.81120157
0.01374729 0.058703072 0.79494441
0.013573288 0.060110211 0.78488266
0.013493991 0.061896633 0.78029728
0.013388897 0.063535519 0.77422017
0.016061593 -0.0044889813 0.8017624
0.016029926 -0.0022880638 0.80018163
0.016080245 -9.6297939e-05 0.80269355
0.016071549 0.0021015133 0.80225939
0.016159266 0.0043227375 0.80663806
0.016194733 0.0065468289 0.8084085
0.016377911 0.0088605331 0.81755233
0.016473697 0.011165108 0.82233387
0.0168535 0.013727209 0.8412928
0.017514551 0.016660724 0.87429118
0.018030731 0.019617416 0.90005785
0.018516423 0.022677938 0.92430258
0.018730706 0.025501775 0.93499911
0.018978132 0.028433874 0.94735014
0.019025348 0.031106304 0.94970715
0.019088555 0.033819977 0.95286232
0.018953655 0.036172852 0.94612837
0.018872917 0.038599603 0.94209802
0.018728746 0.040865868 0.9349013
0.018648386 0.043240659 0.9308899
0.018452635 0.045310132 0.92111838
0.018315945 0.047479168 0.91429508
0.018041326 0.049234413 0.90058666
0.017858719 0.051178243 0.89147139
0.017578186 0.052778102 0.87746775
0.017328093 0.054396782 0.8649835
0.016966382 0.055581428 0.8469277
0.016615674 0.056704678 0.82942098
0.016175516 0.057414517 0.80744922
0.015973791 0.058882892 0.79737949
0.015788602 0.06035931 0.78813523
0.015657362 0.061998699 0.78158396
0.015508557 0.063530251 0.77415597
0.018265801 -0.0044909013 0.80210531
0.018194519 -0.0022846137 0.79897511
0.018214982 -9.5959651e-05 0.79987371
0.018207617 0.0020944169 0.79955035
0.018283932 0.0043027136 0.80290151
0.018357154 0.0065282709 0.80611694
0.018526195 0.0088170487 0.81354004
0.018692946 0.011145131 0.82086253
0.018976746 0.013597201 0.83332503
0.019557575 0.016366109 0.85883093
0.019989735 0.019132473 0.87780839
0.020465279 0.022049552 0.89869094
0.020710399 0.024805067 0.90945494
0.021015201 0.027698213 0.92283964
0.021128373 0.030389074 0.92780936
0.021241087 0.033106446 0.93275899
0.021106306 0.035435423 0.92684036
0.021043522 0.037861507 0.92408335
0.020924821 0.040165152 0.91887081
0.020862237 0.042554703 0.91612256
0.020687344 0.044686597 0.90844244
0.020528113 0.046812136 0.90145016
0.020196093 0.048484545 0.88687021
0.019945137 0.050281435 0.87584996
0.019693937 0.052017305 0.86481905
0.01947481 0.053781301 0.85519648
0.019146979 0.055179313 0.84080046
0.01874632 0.056279805 0.82320637
0.018290723 0.057112355 0.80319977
0.018108256 0.058720995 0.79518712
0.017942687 0.060342558 0.78791648
0.017805217 0.062022161 0.78187972
0.017632533 0.0635418 0.7742967
0.020382421 -0.004473187 0.79894143
0.020311708 -0.0022765917 0.79616964
0.020314366 -9.5527779e-05 0.79627383
0.020311095 0.0020854983 0.79614562
0.020363688 0.0042775567 0.79820722
0.02037118 0.0064665927 0.79850084
0.020498348 0.0087080793 0.80348557
0.020716555 0.011025326 0.81203872
0.02105424 0.013465852 0.82527512
0.021559611 0.016104152 0.84508443
0.021949764 0.018752553 0.86037749
0.02241968 0.021561451 0.87879705
0.022647941 0.024212917 0.88774437
0.02306544 0.027136039 0.9041093
0.023205316 0.029792393 0.90959209
0.023325697 0.032451663 0.91431075
0.023252623 0.034846872 0.91144639
0.023230616 0.037308402 0.91058379
0.023115288 0.039605316 0.90606326
0.023024581 0.041922282 0.90250772
0.022843866 0.044046223 0.89542413
0.022695152 0.046196494 0.88959491
0.022321919 0.0478337 0.87496507
0.022072196 0.049668688 0.86517656
0.021820728 0.051445931 0.85531962
0.021637687 0.053337842 0.84814489
0.021259913 0.054689508 0.83333701
0.02083065 0.055822063 0.81651098
0.0203765 0.05679306 0.79870939
0.020251006 0.058617849 0.79379034
0.020120801 0.060401537 0.78868663
0.019949216 0.062028598 0.7819609
0.019730989 0.063468784 0.77340692
0.022497155 -0.0044585345 0.79632437
0.022413416 -0.0022685586 0.79336029
0.022408085 -9.5155614e-05 0.79317164
0.022420213 0.0020788324 0.79360092
0.022495979 0.0042672441 0.79628283
0.022474762 0.0064425478 0.79553175
0.022519529 0.0086390506 0.7971164
0.0226519 0.010886338 0.80180186
0.023054391 0.013315306 0.81604868
0.023571 0.015899306 0.83433491
0.024000883 0.018516591 0.84955138
0.024477622 0.021257933 0.86642635
0.024707194 0.023853112 0.87455243
0.025042413 0.026605051 0.88641804
0.025097942 0.02909774 0.88838363
0.025243355 0.031714119 0.89353073
0.025240865 0.034158543 0.89344257
0.025302827 0.036695961 0.8956359
0.025236715 0.039047226 0.89329571
0.025097856 0.041266061 0.88838059
0.024883466 0.043326456 0.88079184
0.024664998 0.045337781 0.87305886
0.024337944 0.047096603 0.8614822
0.024062099 0.048896063 0.85171825
0.02379985 0.050670974 0.84243548
0.023585163 0.052500896 0.8348363
0.023182213 0.053851858 0.82057321
0.022843227 0.055279452 0.8085742
0.022498926 0.056627929 0.79638708
0.022410844 0.05857937 0.79326928
0.022246774 0.06030773 0.78746176
0.022058133 0.06193528 0.78078449
0.021850396 0.063470781 0.7734313
0.024601502 -0.0044445959 0.79383481
0.024525924 -0.002262942 0.79139608
0.024560219 -9.507536e-05 0.7925027
0.024545014 0.0020746705 0.7920121
0.024616003 0.0042566331 0.79430276
0.024525959 0.0064090644 0.79139721
0.024546558 0.0085842712 0.79206192
0.024623293 0.010787713 0.79453796
0.024995409 0.013160241 0.80654532
0.025555 0.015713833 0.82460201
0.025899338 0.018214973 0.83571303
0.026355572 0.020865574 0.85043466
0.026599333 0.023409842 0.85830027
0.026963564 0.026113875 0.87005323
0.027070107 0.028609958 0.87349111
0.027224742 0.031179952 0.87848085
0.027232328 0.033595875 0.87872565
0.027195631 0.035954595 0.87754148
0.027063057 0.038171597 0.8732636
0.026938293 0.040376864 0.86923778
0.026755428 0.042467855 0.86333716
0.02657846 0.044536397 0.8576268
0.026315015 0.046421096 0.84912598
0.026093513 0.048336923 0.84197861
0.02575258 0.049981795 0.8309775
0.025469003 0.051682778 0.82182711
0.025057673 0.053063098 0.80855441
0.024855407 0.054831896 0.80202776
0.024573926 0.056383178 0.79294497
0.024572041 0.058550932 0.79288417
0.024371386 0.060227145 0.7864095
0.024174059 0.061876398 0.78004217
0.023912853 0.06332162 0.77161366
0.026710881 -0.0044337567 0.79189885
0.026687952 -0.0022624359 0.79121906
0.026741304 -9.5111121e-05 0.79280078
0.026685733 0.0020724209 0.79115331
0.026744375 0.0042490722 0.79289186
0.026640819 0.0063963057 0.78982174
0.026683953 0.0085738515 0.7911005
0.026718335 0.010754881 0.79211986
0.027062539 0.01309137 0.80232447
0.027502634 0.015537945 0.81537199
0.027871029 0.018009676 0.82629383
0.028188761 0.020504391 0.83571362
0.028463461 0.023015924 0.84385765
0.028757716 0.025589475 0.85258144
0.028924236 0.028086791 0.85751832
0.029092088 0.030612553 0.86249465
0.029039802 0.032916058 0.86094451
0.028947741 0.035162758 0.85821515
0.028842008 0.037376784 0.85508049
0.028787596 0.039644312 0.85346735
0.028687278 0.041836053 0.85049319
0.028449384 0.043799698 0.84344035
0.028181009 0.045675289 0.83548379
0.027925134 0.047528565 0.82789785
0.027603531 0.049223077 0.81836331
0.027374303 0.051037569 0.81156737
0.027071621 0.052671913 0.80259371
0.026931971 0.054587536 0.79845351
0.026644085 0.056167979 0.78991854
0.02662687 0.058294244 0.78940815
0.02637508 0.059885103 0.78194332
0.026198635 0.061612252 0.77671224
0.025955958 0.063149609 0.7695176
0.028756479 -0.0044147535 0.78850478
0.028760128 -0.0022549606 0.78860486
0.028843511 -9.4882031e-05 0.79089123
0.028761134 0.0020658176 0.78863245
0.028856661 0.0042402828 0.79125178
0.02874081 0.0063821613 0.78807515
0.028844627 0.0085719153 0.79092181
0.028841801 0.010737563 0.79084432
0.029061953 0.013002548 0.7968809
0.029304989 0.015312565 0.803545
0.029584521 0.017680908 0.8112098
0.029980743 0.020169746 0.82207423
0.030121099 0.022526756 0.82592279
0.030412076 0.02502881 0.83390141
0.030643193 0.027520819 0.84023863
0.030944046 0.030115414 0.84848803
0.030897669 0.032391202 0.84721643
0.030830391 0.034636531 0.8453716
0.030638603 0.036722526 0.84011281
0.030602053 0.038977426 0.83911055
0.030461702 0.041086834 0.83526218
0.030305354 0.043152377 0.83097506
0.030024486 0.045007769 0.82327366
0.029824421 0.046948161 0.81778783
0.029481493 0.04862288 0.80838472
0.02935273 0.050615381 0.80485404
0.029138509 0.052434765 0.79898012
0.029068505 0.054492306 0.79706061
0.028744251 0.05604361 0.7881695
0.028621873 0.057954978 0.78481388
0.028291248 0.059410643 0.77574813
0.028137447 0.061201248 0.77153093
0.027928982 0.062845744 0.76581478
0.030819843 -0.0044009429 0.7860381
0.030861218 -0.0022506386 0.78709334
0.030932155 -9.4643459e-05 0.78890258
0.030881077 0.0020631128 0.78759986
0.031000864 0.0042370846 0.79065496
0.030892521 0.0063806758 0.78789175
0.031026093 0.0085759964 0.79129839
0.031013221 0.010739271 0.79097009
0.031175572 0.012973666 0.79511076
0.031238372 0.015182362 0.7967124
0.031456493 0.017486177 0.80227548
0.031890702 0.019955685 0.8133496
0.03201659 0.022271398 0.81656033
0.032173295 0.024628291 0.820557
0.032257941 0.026946884 0.82271576
0.032577701 0.029490136 0.83087105
0.032566406 0.031755261 0.83058298
0.032579377 0.034044165 0.83091378
0.032385349 0.036104117 0.82596523
0.0323359 0.038308233 0.82470405
0.032191306 0.040386081 0.82101637
0.032156143 0.042588651 0.82011956
0.0319339 0.044525463 0.8144514
0.031726528 0.046452992 0.8091625
0.031425633 0.048208077 0.80148834
0.031376101 0.05032428 0.80022514
0.031279303 0.052354451 0.79775631
0.031181667 0.054369632 0.79526621
0.030899353 0.056036249 0.78806597
0.030616444 0.057662308 0.78085059
0.030254608 0.059094664 0.77162224
0.030045955 0.060786359 0.76630068
0.029918149 0.062618122 0.76304108
0.032999218 -0.0044044205 0.78665924
0.032947116 -0.0022458457 0.7854172
0.033013005 -9.4413757e-05 0.7869879
0.033009097 0.0020612658 0.78689474
0.033140644 0.0042337389 0.79003066
0.032988027 0.0063685342 0.78639245
0.033101864 0.0085522383 0.78910625
0.033065259 0.010702117 0.78823364
0.033203356 0.012915169 0.79152566
0.033206888 0.015085126 0.79160982
0.033301394 0.017302817 0.79386276
0.033529934 0.019611241 0.7993108
0.033660021 0.021885507 0.80241197
0.033966858 0.024303224 0.80972654
0.034050692 0.0265869 0.81172508
0.034228697 0.028961198 0.81596851
0.034216501 0.031185396 0.8156777
0.034306318 0.033507641 0.81781888
0.034140483 0.035575222 0.81386554
0.034128312 0.037791297 0.81357539
0.033937778 0.039796628 0.80903333
0.03389148 0.041955631 0.80792964
0.033694811 0.043912616 0.80324131
0.033637181 0.046034195 0.80186749
0.033424117 0.047925379 0.79678833
0.033454221 0.050153278 0.79750597
0.033325981 0.052137394 0.79444891
0.033268116 0.054219443 0.79306942
0.033061765 0.056042247 0.78815031
0.032753155 0.057658084 0.78079343
0.032356039 0.059072025 0.77132666
0.032067358 0.06063915 0.76444489
0.031965222 0.062533513 0.7620101
0.035127472 -0.0044010668 0.78606021
0.034992248 -0.002239032 0.78303427
0.035080779 -9.4177114e-05 0.78501534
0.03510692 0.0020578748 0.7856003
0.035262 0.0042285942 0.78907061
0.03513214 0.0063666892 0.78616464
0.035200272 0.0085368808 0.78768927
0.0351859 0.010690359 0.78736764
0.035249751 0.012870638 0.78879654
0.03525776 0.01503493 0.78897572
0.035284091 0.017209141 0.78956491
0.035451025 0.019463778 0.79330051
0.035526026 0.021682769 0.7949788
0.035728503 0.023996575 0.7995097
0.035772417 0.026218986 0.80049235
0.035937302 0.028542863 0.80418211
0.035969906 0.030773783 0.80491167
0.036071122 0.033071607 0.80717659
0.035948966 0.035163354 0.80444312
0.035951164 0.037369374 0.80449224
0.035768531 0.039372221 0.80040544
0.035790537 0.041590475 0.8008979
0.035717685 0.043695379 0.79926765
0.035688926 0.045847997 0.7986241
0.035532616 0.047825407 0.79512626
0.035472326 0.049918778 0.79377711
0.035334475 0.051890865 0.79069239
0.035124764 0.053736109 0.78599966
0.035004325 0.05569768 0.78330451
0.034770336 0.057456855 0.77806842
0.034538515 0.059191059 0.77288091
0.034167051 0.060648955 0.76456851
0.034033883 0.062498923 0.76158857
0.037288152 -0.0044019278 0.78621405
0.037088092 -0.0022360629 0.78199589
0.037149969 -9.3971386e-05 0.78330052
0.037125908 0.0020505216 0.78279316
0.037307091 0.0042154263 0.7866134
0.037255086 0.0063614431 0.78551686
0.037333235 0.0085311951 0.78716463
0.037280262 0.010672438 0.7860477
0.037338909 0.012845963 0.78728431
0.03735768 0.01501024 0.78768009
0.037343681 0.017161626 0.78738493
0.037392575 0.019343931 0.78841585
0.037330031 0.021467799 0.7870971
0.037501201 0.023732344 0.79070616
0.037562687 0.025940917 0.79200262
0.037788998 0.02827994 0.79677433
0.037838712 0.030502748 0.79782254
0.03799057 0.032819543 0.80102444
0.03792711 0.034955431 0.79968637
0.037855688 0.03707619 0.79818052
0.037645184 0.039044444 0.793742
0.037608504 0.041178714 0.79296869
0.037618272 0.043362275 0.79317462
0.037698939 0.045632791 0.79487544
0.037596133 0.047679942 0.7927078
0.037511609 0.049739461 0.79092568
0.037276965 0.051581487 0.7859782
0.037134897 0.053529851 0.78298271
0.036983047 0.055447139 0.77978098
0.03683776 0.05735711 0.77671766
0.03656752 0.059048515 0.7710197
0.036254663 0.060637426 0.76442313
0.036066208 0.062405456 0.76044965
0.039473757 -0.0044054775 0.78684807
0.039260268 -0.0022377686 0.78259248
0.039301686 -9.3985487e-05 0.78341806
0.039190773 0.0020463672 0.7812072
0.039387897 0.0042075114 0.78513652
0.039353486 0.0063528083 0.78445065
0.039465882 0.0085260626 0.78669107
0.039436046 0.010673098 0.78609633
0.039470743 0.012837864 0.78678799
0.0395125 0.015009101 0.78762031
0.039427772 0.017129947 0.78593141
0.039476059 0.019306591 0.7868939
0.039315522 0.021374976 0.78369385
0.0394154 0.023581631 0.78568476
0.039372891 0.025706232 0.78483742
0.039530672 0.027967891 0.78798252
0.039594408 0.030175116 0.78925306
0.039748214 0.032462861 0.79231894
0.039703071 0.034594055 0.79141909
0.039709114 0.03676771 0.79153949
0.039593283 0.038822524 0.78923059
0.039694779 0.041089658 0.79125375
0.039709754 0.043273583 0.79155225
0.039740931 0.045477688 0.79217374
0.039579775 0.047454599 0.78896135
0.039402712 0.049393967 0.78543186
0.039155517 0.051222257 0.78050441
0.039020259 0.05317609 0.77780825
0.038887747 0.055119041 0.77516681
0.038697544 0.056962613 0.77137548
0.038385067 0.058598731 0.76514667
0.038156152 0.060332861 0.76058364
0.038043395 0.062231999 0.75833595
0.041701864 -0.0044131568 0.78821963
0.041541591 -0.0022451971 0.78519028
0.041533474 -9.417969e-05 0.7850368
0.041343894 0.0020470126 0.78145355
0.041397933 0.0041932482 0.78247494
0.041336969 0.0063274764 0.7813226
0.041476116 0.0084963841 0.78395265
0.041506715 0.010651845 0.78453106
0.041619167 0.012835721 0.78665656
0.04164882 0.015001415 0.78721702
0.041560162 0.017121444 0.7855413
0.041537609 0.019262945 0.785115
0.0413462 0.021315062 0.78149712
0.041365281 0.023466766 0.78185773
0.04124368 0.025533358 0.77955937
0.041368287 0.027752522 0.78191459
0.041428432 0.029938012 0.78305143
0.041615598 0.032228097 0.78658909
0.041603446 0.034372889 0.78635943
0.041667566 0.036583386 0.78757137
0.041603547 0.038681384 0.78636128
0.041661859 0.040892828 0.78746349
0.041569337 0.042954449 0.78571469
0.041618276 0.045159988 0.78663969
0.041458186 0.047132954 0.7836138
0.041389607 0.049198117 0.78231758
0.041178711 0.051079646 0.77833134
0.041159801 0.053187419 0.77797395
0.041006096 0.055112064 0.7750687
0.040708676 0.05682021 0.76944709
0.040315844 0.058359433 0.76202208
0.040130366 0.060168866 0.75851625
0.039996751 0.062039543 0.75599074
