# .PCD v0.7 - Point Cloud Data file format
VERSION 0.7
FIELDS x y z
SIZE 4 4 4
TYPE F F F
COUNT 1 1 1
WIDTH 784
HEIGHT 1
VIEWPOINT 0 0 0 1 0 0 0
POINTS 784
DATA ascii
-0.040711865 0.12186128 0.94734347
-0.040580325 0.12405439 0.94428265
-0.040489256 0.126357 0.94216347
-0.0402142 0.1280621 0.93576306
-0.040138703 0.13038036 0.93400633
-0.04000634 0.13250065 0.93092632
-0.04011998 0.13543451 0.93357062
-0.040135276 0.1380446 0.93392652
-0.040175844 0.14074518 0.93487054
-0.040005624 0.14269905 0.93090963
-0.040030334 0.14533895 0.93148464
-0.039896026 0.14739452 0.92835939
-0.039970402 0.15021725 0.93009001
-0.039856002 0.15232797 0.92742801
-0.039945975 0.15521823 0.92952162
-0.039829463 0.15730445 0.92681044
-0.039911598 0.16017303 0.92872167
-0.039816298 0.16232869 0.92650408
-0.039694868 0.16436402 0.92367852
-0.039474387 0.16596742 0.91854805
-0.039446127 0.16836312 0.91789043
-0.039400458 0.17067981 0.91682774
-0.039389253 0.17314216 0.91656703
-0.039235096 0.17496563 0.9129799
-0.039110295 0.1769022 0.91007578
-0.038921554 0.17852958 0.90568388
-0.03881738 0.18052618 0.90325981
-0.038704954 0.1824706 0.90064371
-0.038182519 0.12207185 0.94898051
-0.038086317 0.12435746 0.94658959
-0.037978381 0.12659082 0.9439069
-0.037683688 0.12817428 0.93658268
-0.037572045 0.13035266 0.93380791
-0.037408546 0.13233241 0.9297443
-0.037454545 0.13504528 0.93088758
-0.037424993 0.13748685 0.93015313
-0.037507933 0.14034531 0.9322145
-0.037433527 0.14261559 0.9303652
-0.037518073 0.14549215 0.93246651
-0.037387937 0.14753309 0.92923218
-0.037435237 0.15026857 0.93040776
-0.037326008 0.15237148 0.92769295
-0.037408553 0.15525545 0.92974454
-0.037314504 0.1574057 0.92740703
-0.037328623 0.16000682 0.92775798
-0.03721429 0.16205052 0.92491639
-0.037097502 0.16406779 0.9220137
-0.036928739 0.16583574 0.91781932
-0.036916137 0.16829263 0.91750616
-0.03685116 0.17050545 0.91589117
-0.036873784 0.17312072 0.91645348
-0.03668594 0.17473662 0.91178489
-0.036597338 0.17680636 0.90958273
-0.036404721 0.17835446 0.90479547
-0.036340658 0.18051489 0.90320331
-0.036252052 0.18254301 0.9010011
-0.035463717 0.12166325 0.945804
-0.03542253 0.12410995 0.94470561
-0.035336528 0.12639032 0.9424119
-0.035071049 0.12800308 0.9353317
-0.034995895 0.13028559 0.93332738
-0.034899566 0.13247675 0.93075836
-0.034956787 0.13524792 0.93228436
-0.034871969 0.1374675 0.9300223
-0.034929536 0.14024641 0.9315576
-0.034863815 0.1425297 0.92980486
-0.034962118 0.14548592 0.93242657
-0.03483906 0.1475192 0.92914468
-0.03491164 0.1503772 0.93108034
-0.034786776 0.15238088 0.92775023
-0.03486013 0.15524912 0.92970663
-0.03474329 0.15726712 0.92659056
-0.034762155 0.15989225 0.92709363
-0.034628697 0.16180837 0.92353433
-0.03455862 0.16400582 0.92166543
-0.034392063 0.16572808 0.91722339
-0.034361072 0.16808917 0.91639686
-0.034217574 0.16988716 0.91256988
-0.034257703 0.17258926 0.91364008
-0.034143146 0.17450666 0.91058493
-0.034164194 0.17711027 0.91114622
-0.033969868 0.17858472 0.90596366
-0.033919804 0.18079972 0.90462846
-0.03380359 0.18264998 0.90152907
-0.032762717 0.12125611 0.94263893
-0.032699838 0.12360077 0.94082975
-0.03265385 0.12600069 0.93950665
-0.032470111 0.12785095 0.93422014
-0.032383136 0.1300609 0.93171775
-0.032327168 0.13238409 0.93010741
-0.032356825 0.13505588 0.93096066
-0.032284517 0.1372987 0.92888027
-0.032331727 0.14004783 0.9302386
-0.032292552 0.14242339 0.92911142
-0.032381777 0.14536922 0.93167865
-0.032263391 0.14738072 0.92827249
-0.032297526 0.15008232 0.92925459
-0.032191467 0.15212676 0.92620301
-0.03227983 0.1550886 0.92874539
-0.032181822 0.15715426 0.92592555
-0.032174125 0.15965261 0.92570412
-0.032002978 0.1613258 0.92077994
-0.031990852 0.16378617 0.92043108
-0.031840216 0.16552456 0.91609704
-0.031829916 0.16797981 0.91580069
-0.031658627 0.16957113 0.91087234
-0.031702146 0.17230296 0.91212445
-0.031628694 0.17439669 0.91001111
-0.031708322 0.17733498 0.9123022
-0.031547852 0.17892408 0.90768522
-0.031508643 0.18118519 0.90655708
-0.031356312 0.1827807 0.90217429
-0.030118639 0.121008 0.94071013
-0.030057333 0.12333349 0.93879533
-0.030020341 0.12575033 0.93763995
-0.029869158 0.12767275 0.93291795
-0.029831098 0.13006251 0.93172926
-0.029837046 0.13264138 0.93191499
-0.029889923 0.13543391 0.93356651
-0.0298122 0.13763256 0.93113899
-0.029827399 0.14025486 0.93161368
-0.029726841 0.14232552 0.92847288
-0.029763119 0.14504583 0.92960602
-0.02967361 0.14714858 0.92681032
-0.029774182 0.15019488 0.92995149
-0.029713653 0.15243194 0.92806101
-0.029841928 0.15564334 0.93206745
-0.029739304 0.15765268 0.92886215
-0.029715909 0.16007124 0.92813146
-0.029554641 0.16173132 0.92309451
-0.029550493 0.16423705 0.92296493
-0.02939944 0.16591303 0.91824704
-0.029358167 0.16819207 0.91695791
-0.029198613 0.16977631 0.91197449
-0.029213523 0.17236261 0.91244024
-0.029169384 0.17459801 0.91106158
-0.029252388 0.17759776 0.91365409
-0.02912838 0.17933717 0.90978086
-0.029059596 0.18140012 0.90763253
-0.028908215 0.18292862 0.90290439
-0.027577113 0.12116403 0.94192314
-0.027487539 0.12334247 0.93886364
-0.027432712 0.1256633 0.93699092
-0.027284572 0.12753768 0.93193108
-0.027270185 0.13002208 0.9314397
-0.027291277 0.13267626 0.93216014
-0.02734172 0.13547982 0.93388301
-0.027281908 0.1377362 0.93184012
-0.027265279 0.14020342 0.93127209
-0.027182849 0.14232302 0.9284566
-0.027226364 0.14509839 0.92994291
-0.027201124 0.14750905 0.92908078
-0.027327063 0.150749 0.93338239
-0.027341917 0.15338929 0.93388975
-0.027484879 0.15676305 0.93877274
-0.027428906 0.15901029 0.93686098
-0.027367404 0.16121449 0.93476027
-0.027188921 0.16270712 0.92866403
-0.02717877 0.16518947 0.92831731
-0.027081061 0.16712956 0.92497998
-0.027033892 0.16936798 0.92336881
-0.026854718 0.17075823 0.91724902
-0.02677184 0.17273626 0.91441822
-0.026692143 0.1747196 0.91169608
-0.026739089 0.17752884 0.91329956
-0.026637055 0.1793438 0.90981448
-0.026575515 0.18141612 0.90771258
-0.026442485 0.18298219 0.9031688
-0.024992494 0.1211434 0.94176275
-0.024905615 0.12329324 0.93848896
-0.024868818 0.12567824 0.93710238
-0.02474691 0.12761673 0.93250865
-0.024776118 0.13032494 0.93360931
-0.024777031 0.13288742 0.9336437
-0.024802577 0.13558476 0.93460631
-0.024730664 0.13774453 0.93189651
-0.024728587 0.14028564 0.93181825
-0.024734745 0.1428739 0.93205029
-0.024855871 0.14613937 0.93661451
-0.02492897 0.1491425 0.93936902
-0.025145127 0.15303141 0.94751424
-0.025212351 0.15604314 0.95004737
-0.025328331 0.15937555 0.95441771
-0.025265846 0.1615905 0.95206314
-0.025196949 0.1637509 0.949467
-0.02504793 0.16536808 0.94385165
-0.024974735 0.16746296 0.94109356
-0.024836965 0.16910303 0.93590212
-0.024729872 0.17092671 0.93186671
-0.024496388 0.17184161 0.92306852
-0.024355607 0.17336823 0.91776371
-0.024239894 0.1750468 0.91340339
-0.024218714 0.17739388 0.91260529
-0.024109203 0.1790805 0.90847874
-0.024057673 0.18118116 0.906537
-0.02396366 0.18294686 0.90299439
-0.022339936 0.12075079 0.93871063
-0.022281444 0.12299947 0.93625283
-0.022262018 0.12545483 0.93543655
-0.022186419 0.12758268 0.93225992
-0.022207918 0.13026267 0.93316329
-0.022208471 0.13282236 0.93318659
-0.022212617 0.13540408 0.93336082
-0.022187483 0.13780487 0.93230462
-0.022231655 0.14063831 0.93416071
-0.022367539 0.14407265 0.93987048
-0.022647133 0.14848047 0.95161885
-0.022879556 0.15263797 0.96138513
-0.023085244 0.15666758 0.97002804
-0.023069272 0.15921469 0.96935689
-0.023049025 0.16172813 0.9685061
-0.022974651 0.1638509 0.96538103
-0.022937248 0.16622446 0.96380931
-0.022828558 0.16806459 0.95924222
-0.02274828 0.17009217 0.95586902
-0.022563258 0.171306 0.94809449
-0.022437615 0.17293489 0.94281507
-0.022168629 0.17341356 0.93151242
-0.022013558 0.1747345 0.92499644
-0.021797633 0.17552973 0.91592336
-0.021699047 0.17723364 0.91178083
-0.021545446 0.17845917 0.90532666
-0.021515915 0.18069126 0.90408576
-0.021445686 0.1825701 0.90113479
-0.019715978 0.12043075 0.93622267
-0.01969341 0.12285472 0.93515098
-0.019677255 0.12531365 0.93438387
-0.019637726 0.12761648 0.93250686
-0.019633608 0.13014375 0.9323113
-0.019636411 0.13271672 0.93244439
-0.019639861 0.13529488 0.93260819
-0.019666811 0.13803889 0.93388796
-0.019829264 0.14175861 0.94160211
-0.02011572 0.14642322 0.95520461
-0.020486705 0.15178864 0.972821
-0.020635417 0.15557481 0.97988266
-0.020772044 0.159307 0.98637038
-0.020738861 0.16175032 0.98479474
-0.020750092 0.16453719 0.98532808
-0.020662064 0.16652699 0.981148
-0.020596214 0.16867551 0.97802109
-0.020462366 0.17024118 0.97166526
-0.020349462 0.17194901 0.96630394
-0.020113332 0.1725702 0.95509124
-0.019973589 0.17396946 0.94845539
-0.019793499 0.17497571 0.93990374
-0.019682217 0.17655234 0.93461955
-0.019397933 0.17652564 0.92112011
-0.019180415 0.17704126 0.91079122
-0.019042043 0.17824112 0.90422052
-0.019026976 0.18057521 0.90350509
-0.018980606 0.18260421 0.90130317
-0.017162815 0.12051208 0.9368549
-0.017126309 0.12281679 0.9348622
-0.017099867 0.12518421 0.93341875
-0.017055467 0.12740959 0.93099511
-0.017060073 0.12999512 0.93124658
-0.017086076 0.13274826 0.932666
-0.01713714 0.13570765 0.93545341
-0.017234482 0.13905568 0.94076693
-0.017508944 0.1438884 0.9557488
-0.017861355 0.14945544 0.9749856
-0.018134212 0.15445031 0.98987985
-0.018252751 0.15818939 0.99635047
-0.018380256 0.16204298 1.0033106
-0.018384501 0.16482957 1.0035423
-0.018408151 0.1677943 1.0048332
-0.018328235 0.16980658 1.0004709
-0.018262263 0.17192626 0.99686974
-0.018106563 0.17316806 0.98837066
-0.017962165 0.17447308 0.98048848
-0.017698782 0.17456135 0.9661113
-0.017545216 0.17567042 0.95772874
-0.017347118 0.17628101 0.94691527
-0.017262755 0.17800513 0.94231021
-0.016981468 0.177644 0.92695576
-0.016755737 0.17778823 0.91463399
-0.016566198 0.17825437 0.90428776
-0.016525183 0.18028419 0.90204895
-0.016479006 0.18224463 0.89952832
-0.014618586 0.12069578 0.93828297
-0.014557724 0.12275299 0.9343766
-0.014529917 0.12507331 0.93259186
-0.014490228 0.12727949 0.93004441
-0.014539558 0.13026929 0.93321061
-0.0145743 0.13314317 0.93544054
-0.0147003 0.136879 0.9435277
-0.014870208 0.14107569 0.95443308
-0.015251616 0.14737585 0.97891349
-0.015523346 0.15273105 0.99635428
-0.015729746 0.15752755 1.009602
-0.015786396 0.1608706 1.013238
-0.015905997 0.16488615 1.0209144
-0.015919222 0.16782233 1.0217633
-0.015967917 0.17114331 1.0248888
-0.015898095 0.17319034 1.0204073
-0.015821479 0.17513759 1.0154898
-0.01568239 0.17635538 1.0065625
-0.015500942 0.17704044 0.99491632
-0.015259198 0.17696245 0.97940016
-0.015097215 0.17773846 0.96900338
-0.014887714 0.17788973 0.95555675
-0.014742608 0.17874809 0.94624323
-0.014508281 0.17845798 0.93120313
-0.014332783 0.17881942 0.91993892
-0.014136088 0.17885095 0.90731418
-0.014078359 0.18059596 0.90360892
-0.014004312 0.18210848 0.89885628
-0.012038124 0.12059489 0.93749863
-0.011978078 0.1225488 0.93282235
-0.011970119 0.1250211 0.93220252
-0.011946036 0.12731817 0.93032706
-0.012025406 0.13072959 0.93650812
-0.012115764 0.1342967 0.94354504
-0.012324922 0.13924454 0.95983374
-0.012556037 0.14453436 0.97783238
-0.012876562 0.15097108 1.002794
-0.013054677 0.15584451 1.0166652
-0.013237594 0.16085227 1.0309103
-0.013279589 0.16419566 1.0341808
-0.013369706 0.16816224 1.0411988
-0.013348725 0.17074619 1.0395648
-0.013369082 0.17385879 1.0411503
-0.013294237 0.17572166 1.0353215
-0.013255103 0.17803228 1.0322739
-0.013123776 0.17906825 1.0220464
-0.012979485 0.17986855 1.0108094
-0.012769701 0.1796857 0.99447197
-0.012636326 0.1805048 0.98408508
-0.012432106 0.18023989 0.96818089
-0.012252945 0.1802565 0.95422834
-0.012036654 0.17964253 0.93738419
-0.011910365 0.18029869 0.92754906
-0.011715084 0.17984186 0.91234112
-0.011626366 0.18096031 0.90543193
-0.01153413 0.18198541 0.89824885
-0.0094306041 0.1200947 0.9336102
-0.009395659 0.12219781 0.93015069
-0.0094115837 0.12495736 0.93172723
-0.0094085876 0.1274692 0.93143064
-0.0094918078 0.13117087 0.93966925
-0.0096048731 0.1353382 0.95086247
-0.0098286914 0.14115749 0.97301996
-0.010076387 0.14744757 0.99754137
-0.010342481 0.15414619 1.0238841
-0.010485176 0.15911654 1.0380106
-0.010622963 0.16408847 1.0516512
-0.010662453 0.16759013 1.0555607
-0.010705996 0.17117801 1.0598713
-0.010670737 0.17350817 1.0563807
-0.010664182 0.1762937 1.0557318
-0.010620406 0.17845029 1.051398
-0.010570711 0.18048207 1.0464784
-0.010470986 0.18161914 1.0366058
-0.01034062 0.18216234 1.0236999
-0.010201239 0.18247356 1.0099014
-0.010072436 0.18290126 0.99715024
-0.0098924637 0.18231605 0.97933328
-0.0097361282 0.18207528 0.96385646
-0.0095545612 0.181271 0.94588166
-0.0094094938 0.18107063 0.93152028
-0.0092553869 0.18061514 0.916264
-0.0091722142 0.18147957 0.90803009
-0.0090868659 0.18225527 0.89958084
-0.0068603582 0.11987355 0.93189102
-0.0068440363 0.12213517 0.92967385
-0.0068597277 0.12496784 0.93180537
-0.0068685543 0.12768456 0.93300432
-0.0069312579 0.13142946 0.94152182
-0.007044977 0.13620737 0.95696908
-0.0072419234 0.14271 0.98372167
-0.0074882722 0.15035111 1.017185
-0.0077005876 0.15747957 1.0460253
-0.0077830916 0.16206305 1.0572324
-0.0078626294 0.16664506 1.0680366
-0.0078861648 0.1700785 1.0712336
-0.0079226531 0.17381361 1.07619
-0.0078835515 0.1758894 1.0708786
-0.0078742169 0.17861129 1.0696106
-0.0078262622 0.18043584 1.0630965
-0.007796065 0.1826407 1.0589947
-0.0077028368 0.18332301 1.0463308
-0.0076160836 0.18409245 1.0345465
-0.0075081424 0.18427727 1.0198841
-0.0074211899 0.18490471 1.0080727
-0.0072946763 0.18446702 0.99088746
-0.0071669635 0.18390441 0.97353935
-0.0070115649 0.18252604 0.95243049
-0.006874064 0.18150458 0.93375278
-0.0067614717 0.18104774 0.91845852
-0.006696179 0.18179122 0.90958935
-0.00662586 0.18234777 0.90003747
-0.0043023475 0.11973076 0.93078095
-0.0042985277 0.12217205 0.92995459
-0.0043090815 0.12502582 0.93223774
-0.0043178312 0.1278387 0.93413067
-0.0043513463 0.13140987 0.94138145
-0.0044294079 0.13639246 0.95826954
-0.0045835143 0.14385426 0.99160928
-0.0047950665 0.15333571 1.037377
-0.0049238522 0.16037217 1.0652388
-0.0049827937 0.16524504 1.0779904
-0.0050255163 0.16964027 1.0872331
-0.005050078 0.17346236 1.0925468
-0.00505218 0.17652883 1.0930016
-0.0050279545 0.17866223 1.0877606
-0.0050137877 0.1811303 1.0846957
-0.0049991426 0.18356404 1.0815274
-0.004958808 0.18502188 1.0728012
-0.0048996988 0.18572028 1.0600134
-0.00483042 0.18595712 1.0450255
-0.00476284 0.18617824 1.030405
-0.0046998342 0.18650077 1.0167742
-0.0046132966 0.18580087 0.99805242
-0.0045304988 0.18515123 0.98013973
-0.0044209445 0.18329415 0.95643848
-0.0043175607 0.18156666 0.93407214
-0.0042347531 0.18059412 0.91615736
-0.0041990476 0.18156005 0.90843278
-0.0041525676 0.18201141 0.89837718
-0.0017514783 0.11966038 0.93023378
-0.0017485578 0.12200496 0.92868268
-0.0017503262 0.12467501 0.92962193
-0.0017545784 0.12753074 0.9318803
-0.0017681774 0.1310918 0.93910289
-0.0017980121 0.13591978 0.95494848
-0.0018660927 0.14378141 0.99110705
nan nan nan
-0.0020361186 0.16280678 1.0814102
-0.002058557 0.16759604 1.0933274
-0.0020761176 0.17204641 1.1026541
-0.0020834072 0.17568178 1.1065258
-0.0020820091 0.17859314 1.1057831
-0.0020713801 0.18069519 1.1001379
-0.0020655501 0.1831919 1.0970415
-0.0020543518 0.18518776 1.091094
-0.002038663 0.18673968 1.0827615
-0.0020137276 0.18738553 1.069518
-0.0019880065 0.18788457 1.0558572
-0.0019586443 0.18795933 1.0402625
-0.0019313665 0.1881517 1.0257748
-0.001887714 0.18664569 1.0025904
-0.0018492349 0.18553168 0.98215365
-0.0018002091 0.18323222 0.95611537
-0.0017575339 0.18144572 0.93344998
-0.001721494 0.18022972 0.91430873
-0.0017062797 0.18111944 0.90622818
-0.0016842911 0.18123597 0.89454973
0.00079337216 0.11913636 0.9261601
0.0007931203 0.12163493 0.92586613
0.00079435814 0.1243651 0.92731112
0.00079469406 0.1269591 0.92770326
0.0007961478 0.12973739 0.92940032
0.000801405 0.13315696 0.9355374
0.0008142353 0.13789268 0.95051515
nan nan nan
0.00092855195 0.16319144 1.0839652
0.00094243261 0.1686448 1.1001691
0.00095223123 0.17344344 1.1116077
0.00095655408 0.17728984 1.116654
0.00095468806 0.17999707 1.1144757
0.00095024658 0.18219852 1.1092908
0.00094762654 0.18472664 1.1062323
0.00094243366 0.18672824 1.1001703
0.00093671179 0.18859011 1.0934907
0.00092741201 0.1896836 1.0826344
0.00091507926 0.1900876 1.0682375
0.00089919526 0.18966365 1.049695
0.00088253827 0.18897256 1.0302501
0.00086074695 0.18705916 1.0048115
0.00084104872 0.18546797 0.98181641
0.0008164029 0.18264391 0.95304555
0.00079625932 0.18068384 0.9295305
0.00078034704 0.17956862 0.91095495
0.00077163009 0.18003038 0.90077907
0.00076310773 0.1804824 0.89083028
0.0033160467 0.11861748 0.92212629
0.0033151126 0.12110949 0.92186654
0.0033188993 0.12377613 0.92291957
0.0033128555 0.12607442 0.9212389
0.0033165812 0.12874275 0.92227501
0.003320836 0.13143769 0.92345816
0.0033477289 0.13505238 0.93093652
0.0034783343 0.14297095 0.96725523
nan nan nan
nan nan nan
0.0039498988 0.17138077 1.098388
0.0039892094 0.17612533 1.1093194
0.0040039378 0.17982577 1.1134151
0.0039899657 0.18223776 1.1095297
0.0039921566 0.18537901 1.110139
0.0039622774 0.18700996 1.1018301
0.0039479937 0.18934335 1.0978582
0.0039049322 0.19025289 1.0858836
0.0038708169 0.1915395 1.0763968
0.0037960319 0.19073069 1.0556006
0.0037216763 0.18982984 1.0349238
0.0036277252 0.18780129 1.0087979
0.0035309258 0.18547995 0.98187989
0.0034027714 0.1813402 0.94624275
0.0033221531 0.17957467 0.92382437
0.0032648928 0.17896672 0.90790147
0.0032273284 0.17936614 0.89745557
0.0031938409 0.17993802 0.8881433
0.0057996716 0.11775447 0.91541737
0.0058110729 0.12049865 0.91721696
0.0058273687 0.12335629 0.91978908
0.0058180303 0.12567429 0.91831511
0.0058130901 0.12808114 0.91753536
0.0058076684 0.13047288 0.91667956
0.0058254073 0.13339029 0.91947949
0.0058932421 0.13749178 0.93018651
0.006100296 0.14496017 0.9628678
0.0063718143 0.15416734 1.0057241
0.0065782606 0.16200677 1.0383095
nan nan nan
0.0069470075 0.17709583 1.0965123
0.0069309333 0.17968297 1.0939752
0.0070060897 0.18466078 1.1058378
0.006983303 0.18707973 1.1022412
0.006978041 0.18995602 1.1014106
0.0068929764 0.19062088 1.0879841
0.0068176044 0.19148444 1.0760874
0.006676944 0.19042081 1.0538856
0.0065533482 0.18972962 1.0343773
0.0063698473 0.18717127 1.0054137
0.0061133094 0.18227652 0.96492177
0.0058970219 0.17837748 0.93078309
0.0058043408 0.17808376 0.91615438
0.0057280259 0.17821909 0.90410882
0.0056745773 0.1790098 0.89567256
0.0056154989 0.17957422 0.88634765
0.0082825786 0.11740232 0.91267973
0.0082854778 0.11994454 0.91299915
0.0083110183 0.12282312 0.91581357
0.0082951188 0.12509218 0.91406155
0.008301843 0.12769966 0.91480255
0.0082810726 0.12987995 0.91251373
0.0083032036 0.13273354 0.9149524
0.0083262511 0.13561541 0.91749209
0.0084498907 0.14017996 0.93111628
0.0086543337 0.14618406 0.95364445
nan nan nan
nan nan nan
0.0089442302 0.15918078 0.98558891
0.0092865704 0.16807675 1.0233123
nan nan nan
0.0098679913 0.1845575 1.0873806
0.0099278037 0.18867303 1.0939715
0.0097540943 0.18831623 1.0748301
0.0096542407 0.18930274 1.0638269
0.0094914315 0.1889755 1.0458865
0.0092660021 0.18728429 1.0210458
0.0088441838 0.18142828 0.97456455
0.0084878206 0.17668012 0.93529594
0.0083431508 0.17618726 0.91935438
0.0082738325 0.17722102 0.91171592
0.0081681944 0.17742403 0.90007544
0.0080956304 0.17829166 0.89207941
0.0080057494 0.17872886 0.88217515
0.010786132 0.11743826 0.91295916
0.010776232 0.11982921 0.91212124
0.010810543 0.12271742 0.91502541
0.010780197 0.12487257 0.91245681
0.010780171 0.12737192 0.91245472
0.010759516 0.1296227 0.91070634
0.01078453 0.13242471 0.91282362
0.010788625 0.13497658 0.91317022
0.01080186 0.13764684 0.91429049
0.010821844 0.14041078 0.91598195
0.011022429 0.14556913 0.93295985
0.011185104 0.15031104 0.946729
0.011310011 0.15461211 0.95730138
0.01107901 0.15402316 0.93774897
0.011378853 0.1608301 0.96312821
0.011759057 0.16893056 0.99530947
0.012035793 0.17569692 1.0187329
0.012048479 0.17867585 1.0198067
0.012098043 0.18221609 1.024002
0.011722875 0.17928366 0.99224693
0.011310061 0.17559281 0.95730561
0.010908586 0.17188916 0.92332393
0.010827904 0.17312853 0.91649485
0.010758877 0.17451957 0.91065228
0.01070923 0.17619742 0.90645003
0.010584826 0.17660496 0.89592028
0.010496513 0.17756535 0.88844532
0.010386577 0.17811397 0.87914008
0.013284613 0.11741586 0.91278499
0.013263892 0.11972936 0.91136122
0.0132917 0.12248225 0.9132719
0.013237107 0.12447077 0.9095208
0.013255577 0.12713951 0.91078985
0.013231145 0.12939566 0.9091112
0.013273783 0.13231115 0.91204083
0.013257584 0.13464513 0.91092777
0.013273648 0.13730675 0.91203153
0.01325044 0.13956079 0.91043693
0.013277777 0.14234795 0.91231519
0.013286719 0.14494476 0.91292965
0.01327455 0.14731066 0.91209352
0.013474114 0.15206148 0.92580557
0.013800219 0.15833931 0.94821221
0.014115077 0.16460875 0.96984607
0.014115321 0.1672685 0.96986288
0.013820711 0.16637877 0.94962019
0.01370348 0.1675469 0.94156528
0.013533228 0.16801262 0.92986727
0.013386622 0.16871227 0.91979396
0.013289551 0.16999036 0.91312426
0.013252685 0.17201331 0.91059119
0.013170522 0.17342594 0.90494573
0.013119113 0.1752184 0.90141344
0.012973576 0.17571661 0.89141363
0.012879502 0.17686674 0.8849498
0.012779634 0.17790078 0.87808782
0.015754992 0.1171915 0.91104084
0.01573493 0.11953487 0.90988076
0.015757881 0.12220544 0.91120791
0.015688986 0.12415645 0.907224
0.015706278 0.12678134 0.90822405
0.015687728 0.12911671 0.90715134
0.015718866 0.13186304 0.90895194
0.015696755 0.13416407 0.90767324
0.015691955 0.13660882 0.90739572
0.01565179 0.13873857 0.90507317
0.015649237 0.14119495 0.90492553
0.01559808 0.14320429 0.90196735
0.015609668 0.14578342 0.90263742
0.015606832 0.14822924 0.90247345
0.015749624 0.15208034 0.91073048
0.015920132 0.15624872 0.92059022
0.015957398 0.15914229 0.92274517
0.015947396 0.16156878 0.92216676
0.015862433 0.16322078 0.91725373
0.015783707 0.16491102 0.91270137
0.015760556 0.16716576 0.91136259
0.01566905 0.16867734 0.90607125
0.015598321 0.17038688 0.90198129
0.015481047 0.17155823 0.89519989
0.015460722 0.17378213 0.89402455
0.015343277 0.17489256 0.88723326
0.015272789 0.17650846 0.88315719
0.015194491 0.17801055 0.87862962
0.01820392 0.11689077 0.90870303
0.018164428 0.11912116 0.90673167
0.018177681 0.12169384 0.90739328
0.01810478 0.1236816 0.90375423
0.018147456 0.12645476 0.90588444
0.018101854 0.1286124 0.90360814
0.018148463 0.13142534 0.90593475
0.018135829 0.13381389 0.90530407
0.0181819 0.13664016 0.90760386
0.018119996 0.13865283 0.90451378
0.018071903 0.14075612 0.90211302
0.018008601 0.14272572 0.89895314
0.018014221 0.14523369 0.89923364
0.018014226 0.14769715 0.89923394
0.018097857 0.15085769 0.90340865
0.018154021 0.15380839 0.90621227
0.018252587 0.15713948 0.9111324
0.018194873 0.15913074 0.90825146
0.018163765 0.16134255 0.90669864
0.018051967 0.16281806 0.90111792
0.018043146 0.16520587 0.90067756
0.017979922 0.16708571 0.89752156
0.017965661 0.16940995 0.89680964
0.017858513 0.17084172 0.89146107
0.017825417 0.1729627 0.88980895
0.01769598 0.17412665 0.88334775
0.017641179 0.17599982 0.88061219
0.01756715 0.17766353 0.87691683
0.020668525 0.11675096 0.90761608
0.020641418 0.11908096 0.90642571
0.020635201 0.12152746 0.90615267
0.020571779 0.1236287 0.9033677
0.020596204 0.12625316 0.90444028
0.020547817 0.1284284 0.90231544
0.020584159 0.13113178 0.90391129
0.020568335 0.13350531 0.90321648
0.02059716 0.13617019 0.90448225
0.02053431 0.13822493 0.90172231
0.020512108 0.14054303 0.90074736
0.020453956 0.14260516 0.89819372
0.020449016 0.14503071 0.89797682
0.020412017 0.1472238 0.89635199
0.020480152 0.15017895 0.89934409
0.020474387 0.15259971 0.89909089
0.020533647 0.15551153 0.90169317
0.020486515 0.15761906 0.89962345
0.020496938 0.160165 0.90008116
0.020348022 0.16144918 0.89354181
0.020314256 0.16362502 0.89205903
0.020227661 0.16536087 0.88825643
0.020274723 0.16818461 0.89032304
0.020206807 0.17005207 0.88734066
0.020196963 0.17239888 0.88690841
0.020073121 0.17375654 0.88147014
0.020016946 0.17567825 0.87900329
0.019937219 0.17737694 0.87550223
0.023119386 0.11657187 0.90622383
0.023100575 0.11895758 0.90548652
0.02310366 0.12145433 0.9056074
0.023064626 0.12372582 0.90407741
0.023086395 0.12632161 0.90493071
0.023010299 0.1283761 0.90194792
0.023074949 0.13121459 0.90448207
0.023014113 0.1333399 0.9020974
0.023069749 0.13613947 0.90427816
0.022961447 0.13796598 0.90003306
0.022936272 0.14027759 0.89904618
0.022838175 0.14213002 0.89520109
0.022785991 0.14425203 0.89315557
0.022782518 0.14667644 0.89301944
0.022849659 0.1495623 0.89565122
0.02284999 0.1520181 0.89566416
0.022860125 0.15454024 0.89606142
0.022833942 0.15681516 0.89503509
0.022847997 0.15936512 0.89558607
0.022699246 0.16076504 0.88975543
0.022651358 0.16285817 0.8878783
0.022580529 0.16477363 0.88510197
0.022672687 0.16788071 0.88871431
0.022611186 0.16985334 0.88630366
0.022578299 0.17203076 0.88501459
0.022415008 0.17319351 0.87861395
0.022361977 0.17518499 0.87653524
0.022261674 0.17678967 0.8726036
0.025530692 0.11624741 0.90370154
0.025528042 0.11871075 0.90360773
0.025570199 0.12138627 0.90509993
0.02555358 0.12378526 0.90451169
0.025548333 0.1262372 0.90432596
0.025427839 0.1281075 0.90006083
0.025494255 0.13091424 0.90241176
0.025410281 0.13294701 0.89943939
0.025461955 0.13568637 0.90126848
0.025316903 0.13736831 0.89613414
0.025301784 0.13973972 0.89559895
0.025195209 0.14159425 0.89182657
0.025176683 0.14393148 0.8911708
0.025136966 0.1461419 0.88976496
0.025181916 0.14884505 0.89135599
0.025177417 0.15125987 0.89119679
0.025204578 0.15386707 0.89215821
0.025169523 0.1560937 0.89091736
0.025163263 0.1584949 0.89069575
0.025027053 0.16006379 0.88587439
0.025015518 0.16241571 0.8854661
0.024927322 0.16426024 0.88234425
0.02498194 0.16704258 0.88427752
0.024868557 0.16869591 0.88026416
0.024851969 0.17099321 0.87967694
0.02467161 0.17214464 0.87329292
0.024625845 0.17421322 0.87167299
0.024573376 0.17622484 0.86981571
0.028004263 0.11623874 0.90363419
0.027985623 0.11863521 0.90303272
0.028049396 0.12138502 0.90509057
0.028006541 0.12367523 0.90370768
0.028001126 0.12612651 0.90353298
0.027870975 0.12800395 0.8993333
0.027916798 0.13068216 0.90081191
0.027792549 0.13255729 0.89680266
0.027819103 0.13514303 0.89765948
0.02767149 0.13687199 0.89289635
0.027681734 0.13936962 0.89322692
0.027572244 0.14125566 0.88969398
0.027594907 0.14381105 0.89042521
0.027525738 0.14588375 0.88819331
0.027526146 0.14831913 0.88820648
0.027458793 0.15038346 0.88603312
0.027460694 0.15282129 0.88609451
0.027353693 0.15464377 0.88264179
0.027336048 0.15696044 0.88207245
0.027234469 0.1587846 0.87879467
0.02730573 0.16161379 0.8810941
0.027252788 0.16370949 0.87938583
0.027320165 0.16652922 0.88155991
0.027179107 0.16807196 0.87700832
0.027124135 0.17012969 0.87523448
0.026899466 0.17109832 0.86798495
0.02687205 0.17329931 0.86710024
0.026804427 0.17523262 0.86491823
