# .PCD v0.7 - Point Cloud Data file format
VERSION 0.7
FIELDS x y z
SIZE 4 4 4
TYPE F F F
COUNT 1 1 1
WIDTH 1392
HEIGHT 1
VIEWPOINT 0 0 0 1 0 0 0
POINTS 1392
DATA ascii
0.093274079 -0.13104884 0.82416117
0.092820123 -0.12816426 0.82015002
0.093090966 -0.12628493 0.8225432
0.092528649 -0.12328239 0.81757462
0.092913598 -0.12154625 0.82097596
0.092472076 -0.11873031 0.81707472
0.092702128 -0.11678177 0.81910741
0.092127435 -0.1138278 0.81402951
0.092585675 -0.11215288 0.81807846
0.092506133 -0.10981737 0.81737566
0.092827275 -0.10795166 0.8202132
0.092598297 -0.10544397 0.81818998
0.092868641 -0.10350388 0.82057875
0.092541195 -0.10089891 0.81768543
0.092580415 -0.098700717 0.81803203
0.092266344 -0.096132509 0.81525689
0.092102908 -0.093732819 0.81381279
0.091512628 -0.090916976 0.80859715
0.091170467 -0.088370197 0.80557382
0.090843104 -0.085853972 0.80268127
0.090904072 -0.083711199 0.80321997
0.090990789 -0.081588566 0.80398619
0.091408074 -0.079750143 0.80767328
0.091065556 -0.077247009 0.80464685
0.09098991 -0.074980378 0.80397844
0.090758353 -0.072592698 0.80193239
0.091006115 -0.070588008 0.80412161
0.090804324 -0.068233512 0.8023386
0.090884864 -0.066094115 0.80305028
0.090601593 -0.063695036 0.8005473
0.090996124 -0.061769783 0.80403334
0.090621464 -0.05932191 0.8007229
0.090867549 -0.057283491 0.80289727
0.090415403 -0.054809894 0.79890215
0.09063641 -0.052749954 0.80085492
0.090258487 -0.050345242 0.79751563
0.090155326 -0.048105434 0.7966041
0.089458987 -0.04556847 0.79045135
0.089297764 -0.043324836 0.7890268
0.08850763 -0.0407991 0.78204525
0.088328123 -0.038578317 0.78045911
0.087654151 -0.036162227 0.77450401
0.087645672 -0.03403721 0.77442908
0.087320365 -0.031797234 0.77155471
0.087607414 -0.029781166 0.77409101
0.087549254 -0.027642211 0.77357715
0.087864317 -0.025614874 0.77636099
0.087562248 -0.023407314 0.77369195
0.087722421 -0.021326756 0.7751072
0.087275237 -0.019105485 0.77115595
0.08719755 -0.016977808 0.77046949
0.086880222 -0.014813032 0.76766562
0.087312795 -0.012773322 0.77148777
0.087291032 -0.010657204 0.77129549
0.087609284 -0.0085754208 0.77410752
0.087406963 -0.0064398767 0.77231985
0.08755745 -0.0043315804 0.77364951
0.086918153 -0.0021960447 0.76800078
0.08689975 -9.2116396e-05 0.76783818
0.086746104 0.0020077908 0.76648057
0.08738742 0.0041379021 0.77214718
0.087214939 0.0062408275 0.77062315
0.087257378 0.0083559845 0.77099812
0.086595781 0.010388734 0.76515234
0.086640365 0.012491268 0.76554626
0.086700745 0.014598619 0.76607978
0.086729512 0.016702805 0.76633394
0.08681947 0.018821651 0.76712883
0.086675189 0.020888399 0.76585394
0.086800516 0.023019664 0.76696134
0.086393274 0.025002867 0.763363
0.086480089 0.027121294 0.76413006
0.086148508 0.029102586 0.76120025
0.085996367 0.031132789 0.75985599
0.085554428 0.033043697 0.75595105
0.085492514 0.03508918 0.75540394
0.085095465 0.036986008 0.75189567
0.084917195 0.038964 0.75032049
0.084618352 0.040875115 0.74767995
0.084898077 0.04306525 0.75015157
0.084857479 0.045098685 0.74979281
0.085329093 0.047414772 0.75395995
0.085025951 0.049304437 0.75128144
0.085182913 0.05145736 0.75266832
0.084742852 0.05324278 0.74878001
0.085107781 0.055532154 0.7520045
0.085011542 0.057527114 0.75115412
0.08504913 0.059611212 0.75148624
0.084676944 0.061400011 0.74819767
0.084487654 0.063307829 0.74652511
0.08427082 0.065185182 0.74460918
0.084523663 0.067426711 0.74684328
0.084615976 0.069548532 0.74765897
0.084868848 0.071810685 0.74989331
0.084694624 0.073713355 0.7483539
0.084912173 0.075958051 0.75027615
0.084925316 0.078025475 0.75039226
0.085132495 0.080276504 0.75222284
0.084926777 0.082138225 0.75040513
0.084968112 0.084234916 0.75077039
0.084504299 0.085820578 0.74667215
0.084669448 0.088037774 0.74813139
0.084235989 0.089626059 0.74430138
0.084273346 0.091705702 0.74463153
0.083945833 0.093381263 0.7417376
0.084141232 0.095635317 0.74346417
0.084002621 0.09751112 0.74223942
0.083856367 0.099371135 0.74094713
0.083700113 0.10121198 0.73956645
0.084052779 0.10367298 0.74268258
0.084053777 0.10570879 0.7426914
0.084269568 0.10801999 0.74459815
0.083710656 0.10932981 0.73965961
0.083870277 0.11156842 0.74107003
0.083244294 0.11275069 0.7355389
0.083437316 0.11503177 0.73724443
0.083116323 0.11660111 0.73440814
0.083424225 0.1190524 0.73712873
0.083241753 0.12080692 0.73551643
0.083250724 0.12283508 0.7355957
0.082952045 0.12440228 0.73295659
0.083174333 0.12674893 0.73492074
0.083144836 0.12871656 0.73466009
0.083389096 0.13111319 0.73681837
0.083283849 0.13296364 0.73588836
0.083543345 0.13540015 0.73818129
0.083367042 0.13713236 0.73662347
0.083422601 0.13924304 0.73711437
0.082920045 0.14041135 0.73267382
0.082939938 0.14245264 0.7328496
0.082609877 0.14388539 0.72993326
0.082822092 0.14625977 0.73180836
0.082612917 0.14789006 0.72996008
0.082750395 0.1501392 0.73117483
0.082593098 0.15185302 0.72978497
0.082668193 0.15399213 0.73044848
0.082759969 0.15616636 0.73125947
0.082975626 0.15858176 0.73316497
0.082875669 0.16039678 0.73228174
0.083020777 0.1626872 0.7335639
0.082895197 0.16444765 0.7324543
0.083072484 0.16681017 0.73402077
0.082851022 0.16837093 0.73206395
0.083038539 0.170762 0.73372084
0.082700789 0.17206928 0.73073655
0.082774103 0.17422542 0.73138434
0.082568176 0.17579059 0.72956479
0.082808018 0.17830564 0.73168397
0.082591988 0.17983967 0.72977519
0.082772553 0.1822364 0.73137063
0.082358524 0.18331841 0.72771233
0.082022898 0.18455677 0.72474676
0.082165495 0.18686648 0.72600675
0.082133673 0.1887822 0.72572553
0.082222879 0.19097748 0.72651374
0.081807271 0.19199237 0.7228415
0.081571214 0.19341284 0.7207557
0.081380188 0.19492976 0.71906781
0.081433482 0.19702856 0.71953875
0.081164986 0.1983436 0.7171663
0.080961794 0.19980679 0.71537095
0.080552138 0.2007456 0.71175122
0.080512367 0.20259535 0.71139985
0.080140859 0.20360038 0.70811725
0.080034427 0.20526727 0.7071768
0.07980518 0.20661104 0.7051512
0.079959221 0.20894529 0.70651227
0.079854727 0.21060517 0.705589
0.079997316 0.21291763 0.70684892
0.07970506 0.21406907 0.70426655
0.07982751 0.21633023 0.70534849
0.079699457 0.21791238 0.70421702
0.080034345 0.22076531 0.70717609
0.079998374 0.22260249 0.70685822
0.080397487 0.22565915 0.71038479
0.080412455 0.22764759 0.71051705
0.080582336 0.23007905 0.71201807
0.080140792 0.23075822 0.70811665
0.080274075 0.23308508 0.70929432
0.080008723 0.23425125 0.70694965
0.080423102 0.23741117 0.7106111
0.080303982 0.23900335 0.70955855
0.080647022 0.24197643 0.71258962
0.080014236 0.24201459 0.70699841
0.080018543 0.24396451 0.70703644
0.079417229 0.24405353 0.70172328
0.079552904 0.24639609 0.70292211
0.079230137 0.24731421 0.70007014
0.079630874 0.25049263 0.70361108
0.079414725 0.25173497 0.70170116
0.079708666 0.25459614 0.70429844
0.079542659 0.25599125 0.70283157
0.079722665 0.25850031 0.70442212
0.07948903 0.25966686 0.70235771
0.079610571 0.2619909 0.70343167
0.07932175 0.26296046 0.70087963
0.10801844 -0.28092653 0.93188417
0.1079438 -0.27818128 0.93124014
0.10753441 -0.27458483 0.92770833
0.10765179 -0.27234039 0.92872101
0.10742193 -0.26922011 0.92673796
0.10781132 -0.26764804 0.93009734
0.10773589 -0.26491457 0.92944652
0.10829547 -0.26373115 0.93427408
0.10818601 -0.26090777 0.93332982
0.10895672 -0.26019138 0.93997872
0.10910972 -0.25797811 0.94129872
0.10966913 -0.25670892 0.94612479
0.10961764 -0.25399771 0.94568056
0.11009391 -0.25249937 0.94978935
0.1102121 -0.25016576 0.95080906
0.11073638 -0.24873872 0.9553321
0.11083928 -0.24635033 0.95621979
0.11118513 -0.24449131 0.95920348
0.11080422 -0.241035 0.9559173
0.11093915 -0.2387066 0.95708132
0.11119019 -0.23661897 0.95924711
0.11100376 -0.23359881 0.95763874
0.11124346 -0.23147416 0.95970666
0.11091287 -0.22816499 0.95685458
0.11107762 -0.22587876 0.95827597
0.11063184 -0.22235763 0.95443016
0.11061742 -0.21971437 0.95430577
0.1102321 -0.21634385 0.95098156
0.10999151 -0.21327217 0.94890594
0.10934171 -0.20942807 0.94330013
0.10905864 -0.20630844 0.94085801
0.10864224 -0.20295314 0.93726575
0.10829951 -0.19975339 0.93430895
0.10760847 -0.19593564 0.92834735
0.10729525 -0.19282953 0.92564511
0.1059496 -0.18790717 0.91403604
0.1035657 -0.18123159 0.89346999
0.099968903 -0.17257486 0.86244011
0.098431967 -0.16759537 0.84918082
0.097644404 -0.16394673 0.84238642
0.097426996 -0.16127916 0.84051085
0.096659482 -0.15772422 0.83388942
0.096439451 -0.15508598 0.83199126
0.096222207 -0.15246256 0.83011705
0.096541323 -0.15068656 0.83287007
0.096436791 -0.14824428 0.83196831
0.096596815 -0.14620732 0.83334881
0.096468687 -0.14373349 0.83224344
0.09609095 -0.14089972 0.82898468
0.095560439 -0.13786338 0.82440794
0.095540568 -0.13557675 0.82423651
0.095200703 -0.13284452 0.82130444
0.095315345 -0.13075186 0.82229346
0.094904162 -0.12794489 0.81874615
0.095280603 -0.12620057 0.82199377
0.094847202 -0.12338495 0.81825477
0.095250733 -0.12165877 0.82173604
0.09476459 -0.11879822 0.81754208
0.095014654 -0.11686617 0.81969941
0.094454765 -0.11394522 0.81486917
0.094878547 -0.11221413 0.8185252
0.094728507 -0.1097979 0.81723076
0.09510693 -0.1079888 0.82049543
0.09481018 -0.10541115 0.81793535
0.09493237 -0.10330342 0.81898952
0.094633833 -0.10074202 0.816414
0.094898082 -0.09878055 0.8186937
0.094641902 -0.096277162 0.81648362
0.094234101 -0.093635231 0.81296551
0.093478173 -0.090674885 0.80644405
0.0933038 -0.08830063 0.80493969
0.093124285 -0.085929886 0.80339098
0.093387298 -0.083965503 0.80566007
0.093335554 -0.081713125 0.80521363
0.093664795 -0.079787739 0.80805403
0.093319558 -0.077288173 0.80507565
0.093232356 -0.075012542 0.80432332
0.09304437 -0.072662324 0.80270159
0.093132891 -0.070530385 0.80346525
0.092994973 -0.06822814 0.80227542
0.0931307 -0.066126712 0.80344635
0.092965715 -0.06381245 0.80202299
0.093175352 -0.061754283 0.80383158
0.092633925 -0.059206173 0.79916066
0.092845961 -0.057147406 0.80098987
0.092478417 -0.054735586 0.79781902
0.092711195 -0.052682262 0.79982722
0.092553087 -0.050405063 0.79846323
0.092429906 -0.048153531 0.79740053
0.091953352 -0.04573207 0.79328924
0.091406211 -0.043299701 0.78856903
0.090433396 -0.040701605 0.78017646
0.090118401 -0.038430016 0.77745897
0.08967223 -0.036120478 0.77360982
0.089912921 -0.034092467 0.77568632
0.08972542 -0.031900842 0.77406871
0.089883819 -0.029832881 0.77543521
0.089659087 -0.027639328 0.77349645
0.089948587 -0.025602765 0.775994
0.089912102 -0.023467438 0.77567923
0.090146393 -0.021398108 0.77770048
0.089747578 -0.019182386 0.77425987
0.08952453 -0.017018927 0.77233559
0.08908882 -0.014830613 0.76857674
0.089231297 -0.012745476 0.76980591
0.0891748 -0.010629887 0.76931846
0.089334637 -0.0085376445 0.77069741
0.089030027 -0.0064044357 0.76806951
0.089116909 -0.0043045352 0.76881903
0.088726513 -0.002188754 0.76545107
0.088857993 -9.1966096e-05 0.76658535
0.088780634 0.002006317 0.76591796
0.089339375 0.0041303523 0.7707383
0.089160189 0.0062292409 0.7691924
0.089144044 0.0083349049 0.7690531
0.088745303 0.01039499 0.76561314
0.088792905 0.01249906 0.76602381
0.088925309 0.01461932 0.76716608
0.088675141 0.016673902 0.76500785
0.088716723 0.018778414 0.76536661
0.088589601 0.020845195 0.76426989
0.088817522 0.022997899 0.76623619
0.088403843 0.024980083 0.76266736
0.088490956 0.027096054 0.76341891
0.088245228 0.02910636 0.76129895
0.088198081 0.031175246 0.76089221
0.087672591 0.033061519 0.7563588
0.087547563 0.035083428 0.75528014
0.087224081 0.037015215 0.75248945
0.08709269 0.03901777 0.75135595
0.086826071 0.040950332 0.7490558
0.086931303 0.043054461 0.74996364
0.086889528 0.045087278 0.74960321
0.087218508 0.047319274 0.75244141
0.086931981 0.049218338 0.74996948
0.086866938 0.051234487 0.74940836
0.086629935 0.053142071 0.74736369
0.086967535 0.055404525 0.75027621
0.08690013 0.057415344 0.74969471
0.086895771 0.059466116 0.74965709
0.08667545 0.061363798 0.74775636
0.086618438 0.063370533 0.7472645
0.086380973 0.065238297 0.74521589
0.086430117 0.067318067 0.74563986
0.086415268 0.069348797 0.74551177
0.086509541 0.071468987 0.74632508
0.086433008 0.073448472 0.74566478
0.086752422 0.075770177 0.74842042
0.087017938 0.078058623 0.75071102
0.087147169 0.080234148 0.75182593
0.086936325 0.08209464 0.75000697
0.08689633 0.084110551 0.74966192
0.086578421 0.085848987 0.74691927
0.086588919 0.087905802 0.74700987
0.086339325 0.08969292 0.7448566
0.086428016 0.091827653 0.74562174
0.086092822 0.093506195 0.74272996
0.086175852 0.095633015 0.74344629
0.086036861 0.097512141 0.74224722
0.085869059 0.099351346 0.74079955
0.085446671 0.10088205 0.73715556
0.085668489 0.10316858 0.73906922
0.085735075 0.105275 0.73964369
0.086048245 0.10769317 0.74234539
0.085676104 0.10925226 0.73913491
0.085825115 0.11147062 0.74042046
0.085419789 0.11296296 0.73692369
0.085639134 0.11527698 0.73881596
0.085384384 0.116952 0.73661822
0.085406087 0.1190002 0.7368055
0.085186101 0.12070692 0.73490763
0.085215539 0.12276258 0.7351616
0.085162282 0.12469854 0.73470211
0.085265808 0.12686527 0.73559529
0.085273355 0.12889181 0.73566037
0.085342683 0.13101356 0.73625845
0.085249059 0.13288456 0.73545074
0.085257009 0.13491188 0.73551935
0.085051775 0.1365972 0.73374879
0.085056655 0.13861522 0.73379087
0.084761128 0.14013682 0.73124135
0.084895454 0.14236529 0.73240018
0.084714212 0.14406344 0.73083657
0.084875897 0.14634433 0.7322315
0.08461459 0.14789352 0.72997713
0.084696978 0.15003921 0.73068792
0.084593132 0.1518545 0.72979206
0.084663987 0.15398261 0.7304033
0.084710129 0.15606853 0.7308014
0.084952503 0.1585228 0.73289233
0.085019693 0.1606575 0.73347199
0.085145719 0.16290794 0.73455924
0.084965117 0.16457044 0.73300117
0.084989473 0.1666262 0.73321128
0.084817149 0.16829289 0.73172468
0.085056394 0.17077777 0.73378861
0.084867664 0.17240457 0.73216045
0.084958255 0.17459647 0.73294199
0.084839515 0.17635752 0.73191762
0.084949419 0.17859362 0.73286575
0.084723189 0.18012032 0.73091406
0.084692538 0.18205674 0.73064959
0.084362283 0.18334061 0.72780049
0.084017113 0.18457609 0.7248227
0.084144607 0.18684483 0.72592258
0.084025487 0.18856613 0.72489494
0.084021784 0.19054356 0.72486299
0.083821774 0.19207098 0.72313744
0.083525725 0.19336662 0.72058344
0.083560377 0.19542165 0.72088236
0.08344581 0.19712584 0.71989399
0.083173767 0.19844891 0.71754706
0.082951076 0.19987801 0.71562588
0.08254391 0.2008477 0.7121132
0.082590275 0.20291242 0.71251321
0.082208931 0.2039184 0.70922333
0.082142241 0.2056943 0.70864803
0.081893057 0.20700572 0.70649827
0.082025602 0.20927931 0.70764172
0.081910759 0.21092215 0.70665097
0.082039088 0.21319148 0.70775807
0.081829898 0.21458179 0.70595336
0.082010798 0.2169944 0.70751405
0.081992477 0.21888369 0.70735598
0.082136117 0.22120832 0.70859516
0.081929892 0.22258919 0.70681602
0.082033724 0.22481005 0.70771182
0.082109533 0.22695833 0.7083658
0.082391813 0.2296858 0.71080106
0.082105331 0.2308276 0.70832956
0.082204469 0.23304909 0.70918483
0.08199434 0.2343912 0.70737201
0.082357049 0.23737444 0.71050113
0.08232037 0.23921427 0.71018475
0.08267048 0.24218544 0.71320516
0.082146421 0.2425916 0.70868403
0.082123823 0.24446575 0.70848912
0.081535183 0.24464045 0.70341086
0.081644595 0.24689829 0.70435476
0.081286669 0.24773699 0.70126688
0.081666537 0.25082478 0.70454407
0.081573382 0.25246656 0.70374042
0.081855342 0.25527373 0.70617288
0.081585683 0.25636092 0.70384651
0.081490725 0.25798845 0.70302731
0.081408389 0.25965181 0.702317
0.081570797 0.2620976 0.70371807
0.081436247 0.26358989 0.70255733
0.11060262 -0.2810061 0.9321481
0.11065587 -0.27858654 0.9325968
0.1102262 -0.27495992 0.92897558
0.11054575 -0.27320477 0.93166876
0.11024884 -0.26992556 0.92916644
0.11071374 -0.26850763 0.93308449
0.11067143 -0.26584989 0.93272799
0.11118071 -0.26450631 0.93702012
0.1110784 -0.26169834 0.93615788
0.111735 -0.26066554 0.94169164
0.11188199 -0.2584253 0.9429304
0.11257978 -0.25743786 0.94881135
0.11247613 -0.25460401 0.94793785
0.11302364 -0.25323385 0.95255214
0.11309105 -0.25077388 0.95312029
0.11364962 -0.24938855 0.95782787
0.11366671 -0.24680173 0.95797193
0.11390599 -0.24469142 0.95998853
0.11356242 -0.24133144 0.95709294
0.11369791 -0.23899432 0.95823485
0.11391828 -0.2368274 0.96009213
0.11360718 -0.23355772 0.95747024
0.11390783 -0.2315459 0.96000403
0.11348929 -0.22807485 0.95647657
0.11385612 -0.22618337 0.95956826
0.11348408 -0.22282417 0.9564327
0.11351283 -0.22025985 0.95667499
0.11300517 -0.21666574 0.95239651
0.11265305 -0.21338969 0.94942886
0.11206063 -0.20968026 0.94443601
0.11176886 -0.20655382 0.94197702
0.1112849 -0.20309012 0.93789828
0.11075698 -0.19956952 0.93344897
0.11012017 -0.19587964 0.92808199
0.11008483 -0.19327515 0.9277842
0.10956565 -0.18983395 0.92340851
0.10711728 -0.18311881 0.90277398
0.10267641 -0.17315648 0.86534679
0.10042652 -0.16704357 0.84638494
0.099588193 -0.16334985 0.83931953
0.099524565 -0.16094767 0.83878326
0.098873369 -0.15761179 0.83329505
0.098677151 -0.15502076 0.83164138
0.098444641 -0.15238261 0.82968181
0.098695569 -0.15049236 0.83179659
0.098867424 -0.14847176 0.83324498
0.099130146 -0.14657758 0.83545917
0.098874345 -0.14391653 0.83330327
0.09799847 -0.14037907 0.82592148
0.09755484 -0.13749126 0.82218266
0.097741745 -0.13549802 0.82375783
0.09757255 -0.13301072 0.82233191
0.097514853 -0.13068065 0.82184565
0.097054571 -0.12782304 0.8179664
0.09738946 -0.12601557 0.8207888
0.097087622 -0.12338346 0.81824493
0.097349644 -0.12146886 0.82045329
0.097000025 -0.11879309 0.81750673
0.097312987 -0.1169296 0.8201443
0.096914142 -0.11421282 0.81678289
0.097218975 -0.11232749 0.81935203
0.096966721 -0.10979727 0.81722605
0.09706042 -0.10766244 0.81801569
0.09657225 -0.10489129 0.81390148
0.096630596 -0.10272367 0.81439322
0.096500203 -0.10035706 0.81329423
0.096731968 -0.098364748 0.81524754
0.09650299 -0.095903844 0.81331772
0.096212588 -0.093393907 0.81087029
0.095602281 -0.090594225 0.80572665
0.095437974 -0.088235058 0.80434191
0.09537299 -0.085973009 0.80379421
0.095619194 -0.083987303 0.80586922
0.095489047 -0.08166834 0.80477232
0.09539707 -0.079387166 0.80399716
0.095122948 -0.076962851 0.80168688
0.095079124 -0.074732222 0.80131757
0.095007017 -0.072482027 0.80070984
0.095055386 -0.070324294 0.80111748
0.094938301 -0.06804575 0.80013072
0.095118456 -0.065978788 0.80164903
0.094814524 -0.063578889 0.79908752
0.094940379 -0.061471306 0.80014819
0.094516926 -0.059014939 0.79657942
0.09483283 -0.057022687 0.79924178
0.094492398 -0.054636355 0.79637265
0.094746888 -0.052595992 0.79851747
0.094643593 -0.050353531 0.79764694
0.09458591 -0.048139054 0.7971608
0.093822747 -0.04558447 0.79072893
0.093185559 -0.043123428 0.78535879
0.092175186 -0.040527724 0.77684343
0.092141882 -0.038385719 0.77656275
0.091714799 -0.036090292 0.77296335
0.092008986 -0.034081761 0.77544272
0.091724306 -0.03185859 0.77304345
0.092004836 -0.029831825 0.77540773
0.091725118 -0.027623385 0.77305031
0.092003465 -0.025583042 0.77539617
0.091847315 -0.02341906 0.77408016
0.092238441 -0.021389196 0.77737653
0.091815881 -0.01917137 0.77381527
0.09158013 -0.01700775 0.77182835
0.091238588 -0.014837813 0.76894987
0.091516107 -0.012770028 0.77128881
0.09145499 -0.010649994 0.77077371
0.091494791 -0.0085422061 0.77110916
0.091121018 -0.0064035142 0.767959
0.091208108 -0.0043038293 0.76869297
0.090883009 -0.0021901897 0.76595312
0.091044538 -9.205356e-05 0.76731443
0.09076982 0.0020039103 0.76499915
0.091105215 0.0041147443 0.76782584
0.090710916 0.0061912616 0.7645027
0.090915516 0.0083042765 0.76622707
0.09073358 0.010382508 0.76469374
0.090873443 0.012496591 0.76587248
0.090997636 0.014614614 0.76691914
0.090594843 0.016641572 0.76352447
0.090572402 0.018728577 0.76333535
0.090305634 0.020758385 0.76108706
0.090483278 0.022888288 0.76258421
0.090225548 0.024906214 0.7604121
0.090312526 0.027015351 0.76114511
0.090186685 0.029059932 0.76008457
0.090398818 0.031215407 0.76187241
0.090060264 0.033177804 0.75901908
0.089788422 0.035150688 0.75672805
0.089295655 0.037019428 0.75257504
0.089259021 0.039065044 0.75226629
0.089030012 0.041020334 0.75033623
0.089069501 0.043094955 0.750669
0.088746548 0.044987675 0.74794722
0.089062713 0.047204219 0.75061184
0.088744715 0.049084608 0.74793178
0.088726602 0.051123101 0.74777913
0.088400722 0.052976318 0.74503261
0.088643953 0.055168688 0.74708253
0.088457339 0.057094842 0.7455098
0.088556774 0.059203614 0.74634784
0.088484496 0.06119822 0.74573869
0.088842079 0.063496709 0.74875236
0.0886214 0.065385066 0.74689245
0.088757433 0.067534655 0.74803895
0.088528626 0.069404498 0.74611056
0.088692769 0.071580924 0.74749398
0.088398248 0.073384151 0.74501175
0.088789396 0.075758822 0.7483083
0.088726945 0.077754065 0.74778199
0.088963836 0.080015644 0.74977851
0.088712968 0.081838205 0.74766421
0.088881403 0.084045678 0.74908376
0.088607304 0.085832246 0.74677366
0.088561095 0.087832183 0.74638426
0.088450745 0.089764878 0.74545419
0.088548146 0.09190812 0.74627513
0.088038042 0.093411274 0.74197602
0.087692656 0.095069446 0.73906511
0.087381087 0.096749119 0.73643923
0.087419637 0.098810144 0.73676413
0.087083213 0.10044045 0.7339288
0.08720798 0.1025978 0.73498029
0.087282673 0.10470086 0.73560983
0.087726988 0.10725928 0.73935449
0.087444268 0.10893252 0.73697174
0.0875948 0.11114241 0.73824036
0.087358944 0.11286009 0.73625261
0.087673858 0.11529113 0.73890668
0.087413892 0.11696748 0.73671573
0.087532341 0.11914693 0.73771399
0.087333806 0.12089304 0.73604077
0.08730413 0.12286763 0.73579067
0.086951271 0.12437855 0.73281682
0.086915381 0.12633391 0.73251432
0.086935312 0.12837003 0.73268229
0.087154873 0.13070647 0.73453271
0.087095618 0.13262847 0.73403335
0.087140016 0.13470796 0.73440754
0.086937509 0.1364021 0.73270082
0.087012544 0.13852878 0.73333323
0.086805485 0.14020328 0.73158813
0.08689642 0.14235641 0.73235452
0.086712606 0.14405729 0.73080534
0.086768225 0.14615299 0.73127407
0.086497426 0.14769389 0.72899181
0.086643964 0.14994453 0.73022681
0.086419031 0.15155052 0.72833115
0.086654775 0.15396461 0.73031795
0.08664909 0.15595505 0.73027003
0.087059028 0.1587029 0.73372495
0.087106884 0.16080125 0.7341283
0.08720395 0.1629938 0.73494637
0.087131806 0.16487065 0.73433834
0.08721786 0.16704714 0.73506355
0.087023653 0.16868438 0.73342681
0.087055504 0.17075604 0.73369527
0.086829558 0.17231758 0.73179102
0.086907618 0.17447901 0.73244888
0.086768061 0.17620212 0.7312727
0.086907655 0.17849211 0.73244917
0.086646751 0.17995675 0.7302503
0.086660951 0.18198706 0.73036999
0.086207919 0.18302608 0.72655189
0.085892059 0.18433854 0.72388983
0.086151645 0.18688472 0.72607762
0.085918836 0.18836339 0.72411555
0.085916646 0.19034222 0.72409707
0.085705832 0.19185396 0.72232038
0.085584693 0.19355874 0.72129941
0.085603297 0.1955772 0.72145617
0.085444555 0.19718727 0.72011834
0.085044391 0.1982273 0.71674579
0.084795505 0.19960493 0.71464819
0.084349051 0.20050144 0.71088552
0.084488288 0.20278308 0.71205902
0.083982974 0.20350924 0.70780027
0.084024169 0.205549 0.70814747
0.08379674 0.20692733 0.7062307
0.084171623 0.20979643 0.70939022
0.084013231 0.21134131 0.70805526
0.084036835 0.21334092 0.70825422
0.083855681 0.21481708 0.70672745
0.084052131 0.21726096 0.70838314
0.08392448 0.21886863 0.70730728
0.083999731 0.22100426 0.70794153
0.083792277 0.22239304 0.70619309
0.083877675 0.22455624 0.70691282
0.083902113 0.2265588 0.70711881
0.084184974 0.22926624 0.7095027
0.084205441 0.23126611 0.70967519
0.084307477 0.23349284 0.71053517
0.084096998 0.23485154 0.70876127
0.084224552 0.23715232 0.7098363
0.084102534 0.2387505 0.70880789
0.084387809 0.24150869 0.71121222
0.084045276 0.24246882 0.70832533
0.08420679 0.24487895 0.70968658
0.08371678 0.24538681 0.70555681
0.083831683 0.2476591 0.70652521
0.083346978 0.24815147 0.70244014
0.083677739 0.2510682 0.70522779
0.083609551 0.25279397 0.70465308
0.083869942 0.25551766 0.70684767
0.083587319 0.25658646 0.70446575
0.083298244 0.2576223 0.70202947
0.083264761 0.25944114 0.70174724
0.08339797 0.26178169 0.70286989
0.083122358 0.26283568 0.7005471
0.11304706 -0.28073505 0.93124896
0.11325391 -0.2786929 0.93295288
0.11297849 -0.27546561 0.93068409
0.11335459 -0.27382454 0.93378228
0.11313486 -0.27074069 0.93197227
0.11360727 -0.2693074 0.93586379
0.11366353 -0.26687577 0.93632728
0.11404581 -0.26519966 0.93947637
0.11402056 -0.26256788 0.93926835
0.11454628 -0.26119354 0.94359916
0.11474136 -0.25904903 0.94520617
0.11538159 -0.25789064 0.95048016
0.11546093 -0.25546238 0.95113373
0.11600236 -0.25404251 0.95559388
0.11607327 -0.25157836 0.95617795
0.11656038 -0.25000376 0.96019071
0.11640889 -0.24705185 0.95894277
0.11654924 -0.24471955 0.96009892
0.11634359 -0.24166223 0.95840484
0.11660717 -0.23957826 0.96057618
0.11643488 -0.2365967 0.95915687
0.11606765 -0.2332312 0.9561317
0.11631912 -0.23111156 0.95820326
0.11593053 -0.22772329 0.95500219
0.11640164 -0.22602186 0.95888305
0.11609609 -0.22280864 0.95636606
0.1163821 -0.22073115 0.95872205
0.11611009 -0.21759503 0.95648134
0.11567694 -0.21417281 0.95291317
0.11460334 -0.20959881 0.94406915
0.11409867 -0.20610097 0.93991184
0.11340288 -0.20228499 0.93418014
0.1131551 -0.19928944 0.93213892
0.11252258 -0.19563617 0.92692846
0.11282677 -0.19361889 0.9294343
0.11232174 -0.19021747 0.92527401
0.11009345 -0.18395938 0.90691799
0.10570686 -0.1742442 0.87078255
0.10334783 -0.16802339 0.85134953
0.10211834 -0.16371998 0.84122133
0.10196333 -0.16117047 0.83994442
0.10124802 -0.15775494 0.83405191
0.10111745 -0.15526961 0.83297634
0.10084407 -0.15257408 0.8307243
0.10096145 -0.15047328 0.83169121
0.10095228 -0.14818144 0.83161563
0.1012042 -0.14626734 0.83369094
0.10105547 -0.14377187 0.83246571
0.10041364 -0.14059272 0.82717848
0.099852614 -0.13755384 0.82255691
0.099951632 -0.13543466 0.8233726
0.099727951 -0.13288102 0.82152998
0.099657826 -0.13053861 0.82095236
0.099145956 -0.12763071 0.81673568
0.099408574 -0.12572545 0.8188991
0.099206552 -0.12323116 0.81723487
0.099436998 -0.12127343 0.81913322
0.099145263 -0.11868022 0.81673002
0.099427849 -0.1167747 0.81905782
0.099235438 -0.11430929 0.81747282
0.099410281 -0.11226731 0.8189131
0.09911108 -0.10969279 0.81644839
0.099063955 -0.10740507 0.81606019
0.098629639 -0.1047084 0.81248242
0.09866976 -0.10252433 0.81281292
0.098623462 -0.1002506 0.81243151
0.098741338 -0.098142147 0.81340259
0.098364629 -0.095547929 0.81029934
0.098241486 -0.093211308 0.80928493
0.097907417 -0.090684883 0.80653298
0.097908445 -0.088476345 0.80654144
0.09771651 -0.08609774 0.80496031
0.097704835 -0.083882555 0.80486417
0.097413488 -0.081434108 0.80246413
0.097259797 -0.079110779 0.80119807
0.09714736 -0.076827005 0.80027187
0.097265981 -0.074725829 0.80124903
0.097097814 -0.072405435 0.7998637
0.097037882 -0.070170894 0.79936999
0.096849568 -0.067849129 0.79781872
0.097037248 -0.06579078 0.79936475
0.096902624 -0.063512713 0.7982558
0.096926339 -0.061340932 0.79845113
0.096518874 -0.058904935 0.79509455
0.096836962 -0.056913748 0.79771489
0.096673623 -0.054636125 0.79636931
0.096964046 -0.052612085 0.79876179
0.096677467 -0.050274879 0.79640102
0.096681155 -0.048095003 0.79643136
0.095982432 -0.045581393 0.79067552
0.095355295 -0.043131694 0.78550935
0.094344899 -0.040545594 0.77718598
0.0942102 -0.038361676 0.77607638
0.093828149 -0.036088698 0.77292913
0.094014183 -0.034038641 0.77446163
0.093873359 -0.031869225 0.77330154
0.094035752 -0.029802261 0.77463931
0.09386076 -0.027628655 0.77319777
0.093967125 -0.025539417 0.77407396
0.093938552 -0.023411753 0.77383864
0.094172753 -0.021344936 0.77576792
0.093654297 -0.019113936 0.77149701
0.093343295 -0.016943995 0.76893508
0.093088448 -0.014797017 0.76683569
0.093449436 -0.012745534 0.76980942
0.093456797 -0.010637508 0.76987004
0.093481235 -0.0085307099 0.77007139
0.093245946 -0.0064049661 0.7681331
0.093213558 -0.0042992011 0.76786631
0.093004428 -0.0021907343 0.76614356
0.093031749 -9.1940092e-05 0.76636863
0.092849866 0.0020035729 0.76487035
0.092838541 0.0040984061 0.76477706
0.092615671 0.0061786151 0.76294112
0.092833497 0.0082881106 0.76473546
0.093052194 0.010407535 0.76653707
0.092998162 0.012500172 0.76609194
0.092930436 0.014588219 0.76553404
0.09248703 0.016605759 0.76188141
0.09254469 0.018704558 0.7623564
0.092368521 0.020753423 0.76090515
0.092437305 0.022854898 0.76147175
0.092319667 0.024909183 0.7605027
0.0921707 0.026948994 0.75927556
0.091996245 0.028974056 0.75783843
0.092241421 0.031132877 0.75985813
0.092290647 0.033232205 0.76026362
0.091954 0.035186101 0.75749046
0.091326647 0.037007004 0.75232249
0.091289692 0.039052155 0.75201803
0.091195293 0.041069765 0.75124043
0.091253176 0.043155134 0.75171727
0.090970524 0.045074388 0.74938887
0.091164604 0.047227852 0.75098765
0.090815581 0.049096469 0.7481125
0.09077581 0.051123492 0.74778485
0.090551622 0.053040702 0.74593806
0.090665042 0.055153169 0.74687237
0.090538472 0.057119347 0.74582976
0.090427212 0.059089813 0.74491322
0.090351112 0.061079029 0.7442863
0.090574048 0.063273713 0.74612278
0.090620354 0.065351084 0.74650425
0.09080328 0.067532152 0.74801117
0.09059152 0.069419026 0.74626672
0.090754345 0.071591839 0.74760801
0.090510391 0.073441938 0.74559844
0.090669051 0.075616792 0.74690539
0.090453967 0.077478692 0.74513364
0.09062852 0.079673402 0.74657154
0.0906884 0.081772596 0.74706477
0.090932831 0.084045067 0.74907833
0.090838827 0.086008132 0.74830395
0.090605661 0.087832056 0.74638319
0.09059488 0.08986605 0.74629438
0.090643853 0.091960184 0.74669784
0.09006463 0.093405023 0.74192637
0.089441597 0.094777301 0.73679399
0.089039758 0.096360855 0.73348379
0.089240015 0.098591439 0.73513341
0.089067578 0.10041091 0.73371291
0.089173019 0.10254214 0.73458153
0.089013815 0.10436783 0.73327005
0.089371286 0.1068038 0.73621482
0.089164093 0.10856835 0.73450798
0.089381874 0.11085059 0.73630202
0.089212395 0.11265365 0.7349059
0.089377955 0.11487969 0.73626971
0.089253567 0.11673399 0.73524505
0.089270368 0.11877052 0.73538345
0.08924932 0.1207566 0.73521006
0.089184023 0.12268086 0.73467219
0.088938966 0.12435084 0.7326535
0.088878423 0.12627189 0.73215473
0.088736482 0.12807274 0.73098546
0.089004286 0.13046782 0.73319155
0.089040749 0.13253063 0.7334919
0.089093946 0.1346204 0.73393017
0.088787951 0.1361617 0.73140943
0.088732116 0.13807848 0.73094952
0.088739574 0.14009267 0.73101091
0.088861704 0.1422908 0.73201698
0.088540785 0.14377503 0.7293734
0.088488959 0.14568779 0.72894645
0.088210881 0.1472206 0.72665572
0.088496469 0.14969432 0.72900832
0.088308908 0.15136993 0.72746325
0.08865457 0.15396307 0.73031068
0.088670917 0.15599249 0.73044533
0.089019597 0.1586148 0.73331767
0.088950351 0.16049875 0.73274726
0.088976614 0.16255407 0.73296362
0.089012735 0.1646288 0.73326117
0.089146741 0.1668884 0.73436505
0.088961899 0.16854997 0.73284239
0.088890009 0.17041972 0.73225015
0.088746361 0.17214705 0.73106682
0.088927656 0.17450555 0.73256028
0.088765338 0.17619018 0.73122317
0.088887915 0.17843941 0.73223293
0.088639803 0.17994165 0.73018903
0.088637926 0.18193813 0.73017359
0.088171668 0.18297085 0.72633266
0.087918513 0.18442957 0.72424728
0.088047832 0.18668781 0.72531259
0.087827325 0.18820225 0.72349608
0.087791182 0.19010597 0.72319835
0.087693021 0.19187237 0.72238976
0.08748237 0.19338566 0.72065443
0.08733733 0.19503598 0.71945965
0.08710371 0.19647993 0.71753514
0.086749591 0.19763884 0.71461803
0.086703822 0.19949119 0.71424097
0.086427763 0.20080644 0.71196693
0.086560011 0.20306709 0.71305633
0.086031698 0.20376915 0.70870423
0.086115249 0.20591038 0.70939249
0.085897997 0.20732938 0.70760286
0.086286314 0.21021384 0.71080166
0.086104341 0.21171363 0.70930266
0.086105488 0.21365957 0.70931208
0.085874625 0.21502465 0.70741034
0.086091883 0.21751149 0.70920002
0.085899085 0.21896286 0.7076118
0.085904688 0.22091573 0.70765793
0.085633121 0.22214983 0.70542085
0.085794978 0.22450586 0.70675421
0.085800387 0.22645625 0.70679873
0.086125925 0.22925906 0.70948046
0.086204804 0.23141439 0.71013021
0.08628466 0.23357594 0.71078807
0.08603017 0.23482846 0.70869166
0.086113989 0.23700057 0.70938212
0.086029053 0.23870824 0.70868242
0.086210348 0.24115679 0.71017587
0.086016975 0.242557 0.70858294
0.086180374 0.24496259 0.70992899
0.085846722 0.24595149 0.70718044
0.086042739 0.24845479 0.70879519
0.085599616 0.24910697 0.70514488
0.08579699 0.25161752 0.70677078
0.08556971 0.25288203 0.70489854
0.085748971 0.25534686 0.70637518
0.085529156 0.25662243 0.70456445
0.085149683 0.2574054 0.70143843
0.085016236 0.25892058 0.70033914
0.085011639 0.26082501 0.70030129
0.084924936 0.26247549 0.69958705
0.11573243 -0.28106108 0.93233049
0.11586645 -0.27882949 0.93341011
0.11554021 -0.27549458 0.93078202
0.11590268 -0.273801 0.93370199
0.11578815 -0.27097514 0.93277937
0.11641011 -0.26986164 0.9377898
0.11650751 -0.26751626 0.93857443
0.11682219 -0.26566067 0.94110948
0.11682642 -0.26309207 0.94114357
0.11733745 -0.26165339 0.94526041
0.11768886 -0.25983974 0.94809133
0.11848187 -0.25897583 0.95447975
0.11870079 -0.25683478 0.9562434
0.11914949 -0.25517613 0.95985806
0.11885007 -0.251912 0.95744598
0.11910222 -0.249818 0.95947725
0.11898319 -0.24694249 0.95851833
0.11923628 -0.24483636 0.96055716
0.11918587 -0.24210256 0.96015114
0.11942559 -0.23995391 0.96208227
0.11905743 -0.23658672 0.9591164
0.11866988 -0.2331977 0.95599437
0.11908393 -0.23138328 0.95932984
0.11875149 -0.22811662 0.95665175
0.11907206 -0.22610466 0.9592343
0.11882327 -0.22300993 0.95723003
0.11895254 -0.22062741 0.95827144
0.11865499 -0.21745694 0.95587438
0.1179501 -0.21356209 0.95019585
0.11671595 -0.20875172 0.94025367
0.11637206 -0.20556845 0.93748331
0.11587755 -0.20213763 0.93349957
0.1159962 -0.1997847 0.93445539
0.11531932 -0.19607392 0.92900252
0.1156243 -0.19404078 0.93145943
0.11492018 -0.19032295 0.92578709
0.11328442 -0.18511386 0.91260958
0.10929886 -0.17618909 0.88050216
0.10650709 -0.1693383 0.85801196
0.10482365 -0.16434841 0.84445029
0.10433007 -0.16127209 0.84047407
0.10363256 -0.15790685 0.83485502
0.10353722 -0.15547663 0.83408695
0.10323838 -0.15274952 0.83167952
0.10314135 -0.15032975 0.83089787
0.10301808 -0.14787659 0.82990479
0.1033203 -0.14603023 0.83233947
0.10316547 -0.14353465 0.83109212
0.10293005 -0.14093557 0.82919568
0.10199169 -0.13739988 0.82163626
0.10211549 -0.13531309 0.82263356
0.10153718 -0.13230595 0.81797475
0.10160917 -0.13015737 0.8185547
0.10105857 -0.12722182 0.81411916
0.10141685 -0.12543471 0.8170054
0.10120083 -0.12293415 0.81526518
0.10139536 -0.12093277 0.8168323
0.1011241 -0.11837754 0.81464702
0.10147694 -0.1165511 0.8174895
0.10127481 -0.11408393 0.81586117
0.10140622 -0.11199404 0.81691974
0.1009627 -0.10927608 0.8133468
0.10082647 -0.10690351 0.81224936
0.10057615 -0.10441849 0.81023276
0.1009528 -0.10258161 0.81326705
0.10094182 -0.10034279 0.8131786
0.10095185 -0.098124869 0.81325942
0.10030723 -0.095284626 0.80806637
0.10048504 -0.093235947 0.80949885
0.10009685 -0.090666741 0.80637163
0.10011435 -0.088473178 0.80651259
0.09967985 -0.085889384 0.80301231
0.099700645 -0.083707012 0.8031798
0.099350043 -0.081220113 0.80035537
0.099314265 -0.078999117 0.80006719
0.099116996 -0.076654792 0.79847801
0.099391982 -0.074673995 0.80069327
0.099184819 -0.072329454 0.79902434
0.09916921 -0.070129521 0.79889864
0.098754175 -0.067656621 0.79555511
0.098928884 -0.065593071 0.79696256
0.098864071 -0.063368276 0.79644042
0.099203773 -0.061396699 0.79917705
0.098926969 -0.059042182 0.79694712
0.099335901 -0.057094011 0.80024147
0.098987989 -0.054709494 0.79743874
0.099098958 -0.052583821 0.79833269
0.09850093 -0.050092693 0.79351503
0.098479666 -0.047908545 0.79334372
0.097609527 -0.045331106 0.78633392
0.097433999 -0.043099329 0.78491992
0.096610077 -0.040602796 0.77828246
0.096329644 -0.038359053 0.77602333
0.095772676 -0.036023669 0.77153641
0.09596397 -0.033977807 0.77307749
0.096026659 -0.031880803 0.77358252
0.096176058 -0.029807907 0.77478606
0.095793575 -0.027575307 0.77170479
0.095781267 -0.025457978 0.77160561
0.095691592 -0.023322338 0.7708832
0.096012637 -0.021281695 0.77346951
0.095581375 -0.019076731 0.76999533
0.09511365 -0.016884329 0.76622736
0.094863221 -0.014746349 0.76420993
0.095116265 -0.012686577 0.76624846
0.095319912 -0.010610136 0.76788902
0.095560238 -0.0085279802 0.76982504
0.095517993 -0.0064162361 0.7694847
0.095537446 -0.0043091397 0.76964146
0.094995633 -0.0021882553 0.76527661
0.094918847 -9.1734873e-05 0.76465803
0.094625138 0.0019968189 0.76229197
0.094803624 0.0040927939 0.76372981
0.094549604 0.0061684302 0.76168346
0.094854206 0.0082816277 0.76413733
0.094887964 0.010378645 0.76440924
0.094650649 0.012441522 0.76249748
0.094525509 0.014511142 0.76148933
0.094410345 0.016576992 0.76056159
0.094629772 0.018703893 0.76232928
0.094320677 0.020724351 0.75983924
0.094270274 0.022793714 0.75943321
0.094203033 0.024856411 0.75889152
0.094231375 0.026943466 0.75911981
0.093951218 0.028936761 0.75686294
0.094173998 0.03108369 0.75865763
0.094233312 0.033182889 0.75913543
0.094139494 0.035227403 0.75837964
0.0934783 0.037042946 0.75305313
0.0935442 0.039133474 0.75358403
0.093245611 0.041066386 0.75117862
0.093425408 0.043207362 0.75262702
0.09303721 0.045081057 0.74949974
0.093300089 0.047267459 0.75161749
0.093092874 0.049216937 0.74994814
0.093264654 0.051366001 0.75133204
0.0929313 0.053233292 0.74864656
0.092804469 0.055208731 0.74762481
0.092521898 0.057082485 0.74534845
0.092494473 0.059106808 0.7451275
0.092339948 0.061045904 0.74388266
0.092566401 0.063238449 0.74570698
0.092607826 0.065310501 0.74604064
0.092859089 0.067536995 0.74806482
0.092659749 0.069436908 0.74645895
0.092982076 0.071730465 0.74905562
0.092514321 0.073411301 0.74528742
0.092534192 0.075469188 0.74544746
0.092167862 0.077204466 0.74249637
0.092479326 0.079506278 0.74500549
0.092385784 0.0814647 0.74425191
0.092686057 0.083774962 0.7466709
0.092634529 0.08577273 0.74625582
0.09270522 0.087884076 0.74682528
0.092542328 0.089771964 0.74551302
0.092322759 0.091596425 0.74374419
0.091668189 0.092970014 0.73847103
0.091259897 0.094569929 0.73518187
0.091002136 0.096311137 0.73310536
0.091279805 0.098619446 0.73534226
0.091093861 0.10042889 0.73384428
0.091126822 0.10247629 0.73410982
0.090719931 0.1040208 0.73083192
0.090940006 0.1062801 0.73260486
0.090714104 0.10801805 0.73078501
0.090951502 0.11030793 0.73269749
0.090747908 0.11206371 0.73105735
0.091024555 0.11441414 0.73328596
0.090877347 0.11623466 0.73210007
0.091114022 0.11854817 0.7340067
0.09099701 0.12040412 0.73306406
0.090969071 0.12237474 0.73283899
0.090526499 0.1237772 0.72927368
0.090568572 0.12583345 0.72961259
0.090432696 0.12764043 0.72851801
0.09087085 0.13026428 0.73204774
0.090921767 0.13234381 0.73245794
0.091124728 0.13465025 0.73409295
0.090793394 0.13616435 0.73142374
0.090821356 0.13821062 0.73164904
0.090605266 0.13988134 0.72990823
0.090806268 0.14219564 0.73152745
0.090416647 0.14358093 0.72838873
0.090575002 0.14583129 0.72966444
0.090246238 0.14729358 0.72701591
0.090585925 0.14984712 0.72975242
0.090473786 0.15165828 0.72884905
0.090916641 0.15440705 0.73241663
0.090722345 0.15607922 0.73085141
0.090920337 0.15842633 0.73244637
0.090580568 0.15983331 0.72970927
0.09076523 0.16216226 0.73119688
0.090874344 0.16436268 0.73207587
0.091263957 0.16708146 0.73521459
0.091083154 0.16876055 0.73375803
0.091030754 0.17067242 0.73333591
0.090812691 0.17226769 0.73157918
0.090858571 0.1743599 0.73194885
0.090628117 0.1759177 0.73009229
0.090803362 0.1782618 0.73150408
0.090682119 0.18002503 0.73052734
0.090219446 0.18109755 0.72680008
0.090209745 0.18306892 0.72672194
0.089775741 0.18416941 0.72322565
0.089901052 0.18641049 0.72423512
0.089769289 0.18811838 0.72317368
0.089945562 0.19047277 0.7245937
0.089669801 0.19186771 0.72237217
0.089458555 0.19338995 0.7206704
0.088926725 0.19420277 0.71638602
0.088729374 0.19572993 0.71479619
0.088351026 0.19684514 0.71174824
0.088453412 0.19902533 0.71257305
0.088290066 0.20060626 0.71125716
0.088356197 0.20270643 0.71178991
0.087886713 0.20356891 0.70800781
0.088193536 0.2062259 0.7104795
0.088041693 0.20781383 0.70925629
0.088348992 0.21048895 0.71173185
0.088003546 0.21160807 0.70894897
0.088150062 0.21390575 0.71012932
0.087961912 0.21539038 0.70861357
0.088114023 0.21770747 0.70983899
0.087715954 0.21865971 0.70663214
0.087738246 0.22065157 0.70681173
0.087602682 0.22224393 0.70571965
0.088087909 0.22541893 0.70962858
0.088082381 0.22734866 0.70958406
0.088089846 0.22931197 0.7096442
0.087997459 0.23101349 0.70889997
0.087992601 0.23294263 0.70886081
0.087811045 0.23439988 0.70739824
0.088005014 0.23685983 0.70896083
0.087935843 0.23861432 0.70840359
0.088133842 0.24109659 0.70999861
0.087926067 0.24246866 0.70832485
0.088198029 0.24516505 0.71051574
0.087850526 0.24613786 0.70771629
0.08800403 0.24851008 0.7089529
0.087600529 0.24930389 0.7057023
0.087869316 0.25200802 0.70786762
0.087684058 0.2534118 0.70637524
0.087797552 0.25567737 0.70728952
0.087577097 0.25696811 0.70551354
0.087230846 0.25787723 0.70272416
0.086927213 0.25889802 0.70027816
0.086903259 0.26074451 0.70008516
0.086778723 0.26228598 0.6990819
0.11823284 -0.28093353 0.93190742
0.11839782 -0.27876908 0.93320787
0.11816952 -0.27567998 0.93140835
0.11857204 -0.27405879 0.93458104
0.11865897 -0.27169758 0.9352662
0.1193127 -0.2706182 0.9404189
0.119374 -0.26817968 0.94090205
0.11967828 -0.26627913 0.94330037
0.1196484 -0.26362914 0.94306481
0.12016007 -0.26216197 0.94709778
0.12054093 -0.26039019 0.95009977
0.12139507 -0.25961405 0.95683199
0.12177279 -0.2577925 0.95980918
0.12202836 -0.25569865 0.96182358
0.1214131 -0.25178784 0.95697415
0.12133858 -0.24901332 0.95638674
0.12144455 -0.24660854 0.95722204
0.12195377 -0.2450093 0.9612357
0.12206751 -0.2426021 0.96213222
0.12220462 -0.24023588 0.96321285
0.12171502 -0.23664531 0.95935392
0.12137774 -0.23336872 0.9566955
0.12179891 -0.23154856 0.96001512
0.12150033 -0.22835745 0.95766169
0.12160529 -0.22592898 0.958489
0.12143921 -0.22299826 0.95717996
0.12153209 -0.22054465 0.95791203
0.12110095 -0.21714741 0.95451379
0.12032991 -0.21316665 0.9484365
0.11899194 -0.20822708 0.93789065
0.11880473 -0.20533422 0.93641508
0.1184982 -0.20224577 0.933999
0.1187446 -0.20010234 0.93594116
0.11809641 -0.19646008 0.93083215
0.11835051 -0.19432731 0.93283492
0.11781215 -0.19089951 0.92859161
0.11722635 -0.1874191 0.92397439
0.1144741 -0.18054709 0.90228122
0.11132856 -0.17318214 0.8774882
0.10863529 -0.16664681 0.85625988
0.10739718 -0.16242859 0.84650117
0.10638849 -0.15860584 0.83855063
0.10607579 -0.15584925 0.83608598
0.10564582 -0.15293638 0.83269697
0.1055236 -0.15048096 0.83173364
0.10532032 -0.14791696 0.83013135
0.10564652 -0.14609392 0.83270246
0.10534893 -0.14340767 0.8303569
0.10538936 -0.14118712 0.8306756
0.10418676 -0.13732637 0.82119668
0.10407352 -0.13492994 0.82030416
0.10343511 -0.13186884 0.81527227
0.10361686 -0.1298632 0.81670475
0.10319136 -0.12710178 0.81335098
0.10340946 -0.12513757 0.81507003
0.10309673 -0.12253304 0.81260514
0.10329855 -0.12054244 0.81419587
0.10305425 -0.11803217 0.81227028
0.10362232 -0.11644536 0.81674784
0.10322261 -0.11376736 0.81359726
0.10353715 -0.11187843 0.81607652
0.10275839 -0.10881814 0.80993831
0.1029539 -0.10680217 0.81147939
0.10274082 -0.10436269 0.80979985
0.10330272 -0.10270292 0.81422877
0.10316364 -0.1003371 0.81313252
0.10318138 -0.098126426 0.8132723
0.10256735 -0.095327809 0.80843258
0.10280709 -0.093330778 0.81032217
0.10230581 -0.090666689 0.80637115
0.1024095 -0.088547319 0.80718845
0.10201651 -0.086004741 0.80409086
0.10216951 -0.083927646 0.80529678
0.1016867 -0.081335388 0.80149132
0.10180561 -0.079232275 0.80242854
0.10154515 -0.076836966 0.80037558
0.10196043 -0.074949637 0.80364883
0.10152181 -0.072435118 0.80019164
0.10149106 -0.070221744 0.79994929
0.10103622 -0.067725435 0.79636425
0.10133502 -0.065737657 0.79871935
0.10132101 -0.063540816 0.79860896
0.1017185 -0.061593749 0.80174196
0.10134164 -0.059177347 0.79877156
0.10164268 -0.057158422 0.8011443
0.10108596 -0.054662678 0.79675633
0.10119063 -0.052534327 0.79758126
0.10067086 -0.050090767 0.79348451
0.10068211 -0.047922399 0.79357314
0.099815972 -0.045354877 0.78674626
0.099721357 -0.043158665 0.78600055
0.099232897 -0.040804591 0.78215051
0.098896898 -0.038531013 0.77950215
0.098035768 -0.036078688 0.77271479
0.097989343 -0.033945784 0.77234888
0.097960889 -0.031820722 0.77212459
0.098136164 -0.029758664 0.7735061
0.097837567 -0.027555574 0.77115256
0.097834811 -0.025442313 0.77113086
0.0978541 -0.023334429 0.77128285
0.097906329 -0.021232858 0.77169454
0.097700097 -0.019078556 0.770069
0.097102799 -0.01686524 0.76536113
0.096883036 -0.014735139 0.76362896
0.096930914 -0.012649455 0.76400638
0.09712474 -0.010577598 0.7655341
0.097366758 -0.0085015772 0.76744163
0.09724801 -0.0063913963 0.76650572
0.097569712 -0.0043057799 0.76904136
0.097096547 -0.0021883561 0.7653119
0.097040892 -9.1760689e-05 0.76487321
0.096639745 0.0019952981 0.76171136
0.096791551 0.0040883897 0.76290792
0.096596137 0.0061658728 0.76136768
0.096810989 0.0082699638 0.76306111
0.096710905 0.01034963 0.76227224
0.096569449 0.012419653 0.76115727
0.096450448 0.014486941 0.76021934
0.096573442 0.016590662 0.76118875
0.096863389 0.018731982 0.76347411
0.096597731 0.020766379 0.7613802
0.096482605 0.022824915 0.76047277
0.096239842 0.024845531 0.75855935
0.096221566 0.02691846 0.75841528
0.095863536 0.02888822 0.7555933
0.095902205 0.030970627 0.75589812
0.096019454 0.033081777 0.75682223
0.095952921 0.035130702 0.75629783
0.09545397 0.037009101 0.75236511
0.095291197 0.039003555 0.75108218
0.09514156 0.040996633 0.74990273
0.095353849 0.043147024 0.75157601
0.095296271 0.045178644 0.75112218
0.095454939 0.047314957 0.75237274
0.095349304 0.049321417 0.75154018
0.095565192 0.051496565 0.75324178
0.095275089 0.053397451 0.75095522
0.094983496 0.055284943 0.74865687
0.094646148 0.057132222 0.74599791
0.094718836 0.059221301 0.74657083
0.094561398 0.061164673 0.74532992
0.094533347 0.063187718 0.74510878
0.094459675 0.065178089 0.74452811
0.094694853 0.067385048 0.74638182
0.094483607 0.069274843 0.74471676
0.094665922 0.07145258 0.74615377
0.094330408 0.073236153 0.74350923
0.094336994 0.075278223 0.74356115
0.094166793 0.077175692 0.74221963
0.094221324 0.079254843 0.74264944
0.094064802 0.081154257 0.74141574
0.094199933 0.083304852 0.74248087
0.094240762 0.085375831 0.74280268
0.094519489 0.087669238 0.74499959
0.094333135 0.089533262 0.74353075
0.093939044 0.091187589 0.74042451
0.093506478 0.092786714 0.73701507
0.093384236 0.094681799 0.73605156
0.093367644 0.096681014 0.73592079
0.093394123 0.098725021 0.73612946
0.093151979 0.10048043 0.73422092
0.093174227 0.10251628 0.73439628
0.092813194 0.1041231 0.73155063
0.092818722 0.10613348 0.7315942
0.092512675 0.1077811 0.72918195
0.092644982 0.10993566 0.73022479
0.092568845 0.11184409 0.72962469
0.092800952 0.11412832 0.73145413
0.092661478 0.11595757 0.73035479
0.092791125 0.11812339 0.73137665
0.092697561 0.12000585 0.73063922
0.092787355 0.12212559 0.73134696
0.092586167 0.12385993 0.72976118
0.092688449 0.12599812 0.7305674
0.092497185 0.12773535 0.72905982
0.092798851 0.1301557 0.73143756
0.092795089 0.13215409 0.73140794
0.092865013 0.13425884 0.73195904
0.092462629 0.13567358 0.72878748
0.092603534 0.13787986 0.7298981
0.092497587 0.13971937 0.72906303
0.092847653 0.14225294 0.73182219
0.092408121 0.14357483 0.72835785
0.092657484 0.14596297 0.73032331
0.092400864 0.14755386 0.72830063
0.092709087 0.15004787 0.73073006
0.092533514 0.15176174 0.72934622
0.092678599 0.15400082 0.73048973
0.092449874 0.15561697 0.72868693
0.092660233 0.15797181 0.73034501
0.092412069 0.15954413 0.72838897
0.092662945 0.16197807 0.73036635
0.092597142 0.16386244 0.72984773
0.092950918 0.1664955 0.73263615
0.09292008 0.16844663 0.73239309
0.092993282 0.17058727 0.73297006
0.092882551 0.17238969 0.73209727
0.092725709 0.17410077 0.73086107
0.092503913 0.1756817 0.72911286
0.092663348 0.17798531 0.73036951
0.092636362 0.17993373 0.73015684
0.092392996 0.181456 0.72823864
0.092407174 0.18347915 0.7283504
0.091939785 0.18453631 0.72466642
