# .PCD v0.7 - Point Cloud Data file format
VERSION 0.7
FIELDS x y z
SIZE 4 4 4
TYPE F F F
COUNT 1 1 1
WIDTH 1441
HEIGHT 1
VIEWPOINT 0 0 0 1 0 0 0
POINTS 1441
DATA ascii
0.19724412 0.22385217 0.83418828
0.19650479 0.22528976 0.83106148
0.19628331 0.22730993 0.8301248
0.19551106 0.22868079 0.82685882
0.19569257 0.23116034 0.82762647
0.19545077 0.23313916 0.82660383
0.19598892 0.23605177 0.82887977
0.19556521 0.23780721 0.82708782
0.19608031 0.24070533 0.82926631
0.19556312 0.24233618 0.827079
0.19568622 0.24475589 0.82759959
0.19440137 0.24540114 0.82216567
0.19312912 0.24603269 0.8167851
0.19176404 0.24651539 0.81101185
0.19174355 0.24871057 0.81092519
0.19125509 0.25029284 0.80885941
0.19155107 0.25289944 0.81011117
0.19049874 0.25371715 0.80566061
0.19017677 0.25549167 0.80429894
0.18855128 0.25549245 0.79742438
0.18851136 0.25762239 0.79725552
0.18795949 0.25904587 0.79492158
0.18838938 0.26182097 0.79673964
0.18792062 0.26334667 0.79475713
0.18831664 0.26608345 0.79643202
0.18824601 0.26816466 0.79613334
0.1884964 0.27070522 0.79719228
0.18799363 0.27216125 0.79506594
0.18777676 0.27402282 0.79414874
0.18700555 0.27506396 0.79088712
0.18659654 0.27662426 0.78915739
0.18583798 0.27765277 0.78594923
0.18618855 0.2803337 0.7874319
0.18624495 0.28257638 0.78767037
0.18699919 0.28588727 0.79086024
0.1864188 0.28715977 0.78840566
0.18687196 0.29002288 0.79032218
0.18626888 0.29124501 0.78777164
0.18687044 0.29435062 0.79031575
0.18588579 0.29495326 0.78615141
0.18587779 0.29709411 0.78611761
0.18499346 0.29782397 0.7823776
0.18494149 0.29988298 0.78215778
0.18476588 0.30173889 0.7814151
0.18512855 0.30447599 0.78294891
0.18481164 0.30609596 0.78160858
0.18486899 0.3083328 0.78185117
0.18432902 0.30956781 0.77956748
0.18515125 0.31309384 0.78304487
0.18452726 0.31417656 0.78040594
0.18502891 0.31717438 0.78252751
0.18430471 0.31806827 0.77946472
0.1849484 0.32132187 0.78218699
0.18473023 0.3230831 0.78126431
0.18513559 0.32593697 0.78297865
0.24837983 -0.13382623 1.0384214
0.25053602 -0.13211857 1.047436
0.25141069 -0.12970038 1.0510927
0.25210962 -0.12717353 1.0540148
0.25205371 -0.12425852 1.053781
0.25311497 -0.12188277 1.058218
0.25316516 -0.11900741 1.0584278
0.25444484 -0.11669479 1.0637779
0.25434133 -0.11373432 1.0633452
0.2555142 -0.11133236 1.0682486
0.25515065 -0.10825169 1.0667287
0.25537586 -0.10542241 1.0676703
0.25440383 -0.10210742 1.0636064
0.25372872 -0.098930493 1.060784
0.25249475 -0.095557511 1.055625
0.25234255 -0.092609808 1.0549887
0.25195852 -0.089583166 1.0533831
0.25152174 -0.086547174 1.0515571
0.25002345 -0.083168082 1.0452931
0.24914801 -0.080023356 1.041633
0.2483165 -0.076912291 1.0381566
0.24751133 -0.073828131 1.0347904
0.2461928 -0.070615172 1.0292779
0.24557884 -0.067626432 1.0267111
0.24463874 -0.064565688 1.0227808
0.2439433 -0.061588243 1.0198733
0.24230915 -0.058400482 1.0130413
0.24232036 -0.055627864 1.0130881
0.24147171 -0.052667446 1.0095401
0.24126402 -0.049858931 1.0086718
0.24077734 -0.047000714 1.0066371
0.24084093 -0.044254754 1.0069029
0.23948003 -0.041261904 1.0012133
0.23809585 -0.038296476 0.99542636
0.23605603 -0.035264812 0.9868983
0.2352705 -0.032452885 0.98361421
0.2341913 -0.02962181 0.97910231
0.23442549 -0.026966535 0.98008138
0.23329954 -0.024165014 0.97537404
0.23333548 -0.021496326 0.97552431
0.23257674 -0.018762706 0.97235221
0.23303533 -0.016130725 0.97426945
0.23251769 -0.013431849 0.97210532
0.23260927 -0.010773046 0.97248816
0.23220471 -0.0080948472 0.97079676
0.2315294 -0.0054195793 0.96797347
0.23011513 -0.0027509457 0.96206075
0.22973518 -0.00011522641 0.96047223
0.22804788 0.0024974723 0.95341802
0.22749139 0.0050968565 0.95109147
0.22591011 0.0076487968 0.94448048
0.22573413 0.010228192 0.94374472
0.22471383 0.012755629 0.93947911
0.22459747 0.015321358 0.93899262
0.22423519 0.017864829 0.93747801
0.22350086 0.020366101 0.93440795
0.22312047 0.022886856 0.93281758
0.22244689 0.025365466 0.9300015
0.22229028 0.027893517 0.92934674
0.22141814 0.030320004 0.92570055
0.22064309 0.032740913 0.9224602
0.21973595 0.035122961 0.91866767
0.21706128 0.037181459 0.90748549
0.21447057 0.039194033 0.89665425
0.21304668 0.04137386 0.89070129
0.21288525 0.043780707 0.89002639
0.21360621 0.046375424 0.89304054
0.21329576 0.048750918 0.89174265
0.2131964 0.051169965 0.8913272
0.21218064 0.053356297 0.88708061
0.21184549 0.055698298 0.88567936
0.21097513 0.057885781 0.88204056
0.21067469 0.060216226 0.88078451
0.21042986 0.062556319 0.87976098
0.21012309 0.064871684 0.87847841
0.20930012 0.067014731 0.87503773
0.20879783 0.069245286 0.8729378
0.20775411 0.07127858 0.8685742
0.20711824 0.073432557 0.86591578
0.20608032 0.075424828 0.86157644
0.20582043 0.077686988 0.8604899
0.20519453 0.079800852 0.8578732
0.20515685 0.082135886 0.85771567
0.20448951 0.084210739 0.85492563
0.20485288 0.086706579 0.85644484
0.20425424 0.08879254 0.85394204
0.20423952 0.091125309 0.85388047
0.20341131 0.093085475 0.85041791
0.20369579 0.095548607 0.85160726
0.20376199 0.09791337 0.85188407
0.20400967 0.10036892 0.85291952
0.20376025 0.1025799 0.8518768
0.20403931 0.10505726 0.85304344
0.2029285 0.10680947 0.8483994
0.20240088 0.10884988 0.84619355
0.20172369 0.11079607 0.84336239
0.20215526 0.1133484 0.84516668
0.20241825 0.11581417 0.84626615
0.20245442 0.11815359 0.84641737
0.20189078 0.12013692 0.84406096
0.20183235 0.12241376 0.84381664
0.20154633 0.12454861 0.84262085
0.20211437 0.12721448 0.84499574
0.20165062 0.12923209 0.84305686
0.20180435 0.13164191 0.84369957
0.20155001 0.13378435 0.84263623
0.20151456 0.13606881 0.84248805
0.20062728 0.13776748 0.8387785
0.20040695 0.13991146 0.83785737
0.20015031 0.14202464 0.83678442
0.20066881 0.14469083 0.83895212
0.20052585 0.14688438 0.83835447
0.20099862 0.14953275 0.84033102
0.20046259 0.15142989 0.83809
0.20040925 0.1536849 0.83786696
0.19997272 0.15564044 0.83604193
0.20008127 0.15801647 0.83649576
0.19979458 0.16007833 0.83529717
0.20002127 0.16255081 0.83624488
0.19999254 0.164818 0.83612478
0.20030452 0.16736922 0.83742911
0.20017937 0.16955732 0.8369059
0.20042799 0.17206343 0.83794534
0.199784 0.17379871 0.83525294
0.19941993 0.17576598 0.83373088
0.19929281 0.17793645 0.83319938
0.19932102 0.18024448 0.83331734
0.19955543 0.18274195 0.8342973
0.19956174 0.18503337 0.83432376
0.19987394 0.18761201 0.83562899
0.19986543 0.1898931 0.8355934
0.20049749 0.19278993 0.83823591
0.20011599 0.19471504 0.83664095
0.20040521 0.1972917 0.83785009
0.19981197 0.19899616 0.83536988
0.20061995 0.20209855 0.83874786
0.20031409 0.20408465 0.83746916
0.2007221 0.20679922 0.83917493
0.19951011 0.20783554 0.83410788
0.19989304 0.21052386 0.8357088
0.19976175 0.21267347 0.8351599
0.20029503 0.21553522 0.83738947
0.19976351 0.21725117 0.83516729
0.20006163 0.21986671 0.83641368
0.19960237 0.22164804 0.83449358
0.19981584 0.22417358 0.83538604
0.19935361 0.22593822 0.83345354
0.1989556 0.22776578 0.83178955
0.19822885 0.22920416 0.82875121
0.19805621 0.23127288 0.82802939
0.19802824 0.23350827 0.82791251
0.19853663 0.23638161 0.83003801
0.19833055 0.23840775 0.82917643
0.19852953 0.24092069 0.83000827
0.19796507 0.24250302 0.8276484
0.19827509 0.24515364 0.8289445
0.19782135 0.24685828 0.82704753
0.19668181 0.24768889 0.82228339
0.19486107 0.24762772 0.81467128
0.19427164 0.24910371 0.81220698
0.19330436 0.25007734 0.80816299
0.19327404 0.25225168 0.80803621
0.19237043 0.2532756 0.80425847
0.19212759 0.25515631 0.80324316
0.19060142 0.25531244 0.7968626
0.19029717 0.2570844 0.79559058
0.18987536 0.25868919 0.79382712
0.19049777 0.26171896 0.79642928
0.1901218 0.2633799 0.79485738
0.19012383 0.26556024 0.79486591
0.18978551 0.26726133 0.79345149
0.19011815 0.26990718 0.79484212
0.18996057 0.27185911 0.79418331
0.18961184 0.27353168 0.79272538
0.18887365 0.27462995 0.78963917
0.1886339 0.27644178 0.78863686
0.18796898 0.27762017 0.78585696
0.18806754 0.27991968 0.78626901
0.18807934 0.28209135 0.78631836
0.18901789 0.28566387 0.7902422
0.18872778 0.28738692 0.7890293
0.18916574 0.29022038 0.79086035
0.18860245 0.29151624 0.78850532
0.18898098 0.29426575 0.79008788
0.18769248 0.29440907 0.78470093
0.18764088 0.2964772 0.78448522
0.1867808 0.29725745 0.78088939
0.1868573 0.2995193 0.78120923
0.18654779 0.30115974 0.77991527
0.1872194 0.3043882 0.78272313
0.18703265 0.30622667 0.78194237
0.187207 0.30865622 0.78267127
0.18642859 0.30950803 0.77941692
0.18731166 0.31311941 0.78310883
0.1868033 0.31440908 0.78098351
0.18730675 0.31740165 0.78308827
0.18667965 0.31847706 0.7804665
0.18732184 0.32171807 0.78315139
0.18691903 0.32316706 0.78146732
0.1873855 0.32611966 0.78341752
0.24986449 -0.13310173 1.0327997
0.2518667 -0.1313163 1.0410757
0.25307921 -0.12908275 1.0460875
0.25424656 -0.12679924 1.0509127
0.25427327 -0.12393332 1.0510231
0.2554931 -0.12163481 1.0560652
0.25597054 -0.11896367 1.0580387
0.25740057 -0.11671363 1.0639497
0.25762343 -0.1138975 1.0648708
0.25858784 -0.11139578 1.0688572
0.25830054 -0.10834718 1.0676696
0.25816184 -0.10536573 1.0670964
0.25716752 -0.1020479 1.0629864
0.256679 -0.09894757 1.0609671
0.255566 -0.095624641 1.0563666
0.25503466 -0.092537962 1.0541703
0.25430679 -0.089394256 1.0511618
0.25405362 -0.086428508 1.0501152
0.25271654 -0.083112016 1.0445884
0.25177932 -0.079952791 1.0407145
0.25078037 -0.076795891 1.0365855
0.25045881 -0.073861368 1.0352563
0.2493296 -0.070705108 1.0305887
0.24839327 -0.067626923 1.0267185
0.24678744 -0.064395249 1.0200809
0.24615279 -0.061442364 1.0174576
0.24533097 -0.058459252 1.0140607
0.24520431 -0.055652522 1.0135372
0.24448092 -0.05271998 1.010547
0.24410801 -0.049875438 1.0090057
0.24376744 -0.047045574 1.0075979
0.24387516 -0.044304866 1.0080432
0.24205667 -0.041233599 1.0005265
0.24103533 -0.038330279 0.99630493
0.23871256 -0.035257865 0.98670393
0.23756626 -0.032398496 0.98196572
0.23648673 -0.029573442 0.9775036
0.23691674 -0.026944513 0.97928095
0.23607397 -0.024175504 0.97579747
0.23595826 -0.021491805 0.97531915
0.23512205 -0.01875326 0.97186273
0.23562716 -0.016125446 0.97395056
0.23547095 -0.013448424 0.97330487
0.23564883 -0.010790238 0.97404015
0.23493111 -0.008097155 0.97107351
0.2342836 -0.0054219509 0.96839702
0.23273037 -0.0027507059 0.96197689
0.23235491 -0.00011522073 0.9604249
0.23066019 0.0024974772 0.95341986
0.23022285 0.0050996472 0.95161217
0.2286827 0.0076549966 0.94524604
0.22860813 0.010241122 0.94493783
0.22777511 0.012782994 0.94149464
0.22779629 0.01536361 0.94158214
0.22710118 0.017888285 0.93870896
0.226138 0.020373069 0.93472767
0.22568153 0.022887429 0.93284094
0.22493511 0.025358761 0.92975563
0.22472088 0.027879214 0.92887014
0.22366084 0.030280305 0.92448854
0.22264875 0.032664422 0.92030513
0.22130004 0.034972422 0.91473025
0.21867713 0.037034091 0.90388864
0.21653648 0.03912349 0.89504039
0.21542405 0.041361827 0.89044225
0.21514475 0.043744374 0.88928777
0.2158073 0.046322763 0.89202642
0.21546401 0.048688855 0.89060742
0.21524997 0.05107785 0.8897227
0.21384111 0.053164944 0.88389927
0.21350753 0.055499639 0.88252044
0.2133068 0.057862826 0.88169074
0.21317895 0.060242049 0.88116223
0.2132334 0.062671959 0.88138729
0.21247987 0.064856485 0.87827265
0.21206003 0.067129575 0.87653726
0.2118251 0.069453791 0.87556624
0.21084422 0.071519651 0.87151182
0.20991707 0.073582128 0.86767948
0.20874028 0.075533278 0.86281526
0.2086089 0.077847898 0.8622722
0.20761704 0.079828694 0.85817248
0.20746475 0.082119346 0.85754299
0.20690513 0.084240697 0.85522979
0.2072506 0.086728133 0.85665774
0.20649573 0.088750482 0.85353756
0.20658535 0.091128245 0.853908
0.20589595 0.093155585 0.85105842
0.20620926 0.09563233 0.85235345
0.20601448 0.097874783 0.85154837
0.20635679 0.10037407 0.85296327
0.20585573 0.10246134 0.85089219
0.20604068 0.10488647 0.85165668
0.20498683 0.10667114 0.84730059
0.20482484 0.10890616 0.84663105
0.20379311 0.11066522 0.84236646
0.20425399 0.11322834 0.84427148
0.20390907 0.11534608 0.8428458
0.20430066 0.11788096 0.84446436
0.20376864 0.11988135 0.84226531
0.20394011 0.12229153 0.84297407
0.20342264 0.12428467 0.84083515
0.20364915 0.12672906 0.84177142
0.20321824 0.12876202 0.83999026
0.20358394 0.131299 0.84150189
0.20319344 0.13334799 0.8398878
0.20341757 0.13579845 0.84081417
0.2027784 0.13766789 0.8381722
0.20285082 0.14001402 0.83847153
0.20234631 0.14195704 0.8363862
0.2028597 0.14461426 0.83850825
0.20262504 0.14674139 0.8375383
0.20296182 0.14928351 0.83893037
0.20237567 0.15114397 0.83650756
0.20257249 0.15358476 0.8373211
0.20226288 0.15564033 0.83604133
0.20231359 0.15797023 0.83625096
0.20203964 0.1600441 0.83511859
0.20257312 0.16276053 0.83732373
0.20246778 0.16496851 0.83688831
0.20241979 0.16722147 0.83668989
0.20212428 0.16926609 0.83546847
0.20255494 0.17192034 0.83724856
0.20233928 0.17402847 0.83635712
0.20182511 0.1758716 0.83423185
0.20194936 0.17826661 0.83474541
0.20147836 0.18013227 0.8327986
0.20162335 0.18254495 0.83339787
0.20159121 0.18479857 0.83326507
0.20195079 0.18741496 0.83475131
0.20172833 0.18949276 0.83383179
0.20211233 0.19214207 0.83541906
0.20177518 0.19410633 0.83402544
0.20232835 0.19692953 0.836312
0.20192015 0.19881864 0.83462471
0.20250955 0.20169207 0.83706093
0.20232584 0.20380013 0.83630157
0.20275338 0.20652664 0.83806878
0.20208797 0.20813717 0.83531839
0.20239198 0.21074206 0.83657497
0.20235887 0.21299897 0.83643812
0.2028219 0.21578297 0.83835202
0.20218475 0.21739452 0.83571839
0.20225881 0.21976441 0.83602452
0.20160341 0.22133513 0.83331549
0.20208532 0.22415249 0.83530742
0.20165153 0.22595471 0.83351439
0.20158264 0.2281601 0.8332296
0.20107707 0.22986479 0.83113992
0.20108925 0.23215573 0.83119023
0.20097752 0.23430248 0.83072841
0.20113333 0.23676161 0.83137238
0.20087864 0.23873644 0.83031964
0.20114955 0.24133612 0.8314395
0.20069164 0.24305923 0.82954675
0.20097095 0.24567318 0.83070123
0.20050496 0.24737394 0.82877511
0.19993123 0.24892999 0.82640362
0.19803655 0.24881342 0.8185721
0.19706678 0.24982648 0.81456357
0.19513649 0.249589 0.80658484
0.19482398 0.25139534 0.80529308
0.19384606 0.25232849 0.80125093
0.19417158 0.25495088 0.80259645
0.19284602 0.25539404 0.79711729
0.19252813 0.25715315 0.79580337
0.19221088 0.25890589 0.79449201
0.19306526 0.26224285 0.79802352
0.19267419 0.2638934 0.7964071
0.1923486 0.26562551 0.79506129
0.19166981 0.26685849 0.79225552
0.19185701 0.26929161 0.79302931
0.19142883 0.27085823 0.79125947
0.19106112 0.27250141 0.78973955
0.19043306 0.27376196 0.78714347
0.1905698 0.27611643 0.7877087
0.19004761 0.27751181 0.78555024
0.19029291 0.2800248 0.78656423
0.19015752 0.28197876 0.78600454
0.19130675 0.28584918 0.79075485
0.19103403 0.28760484 0.78962761
0.19138911 0.2903066 0.79109532
0.19075638 0.29150686 0.78847992
0.19089818 0.29388517 0.78906608
0.18975809 0.29427874 0.78435355
0.18976687 0.29644114 0.78438985
0.18887204 0.29718199 0.78069115
0.1887341 0.29910204 0.78012097
0.18821929 0.30041745 0.77799302
0.18896452 0.30374664 0.78107339
0.18909462 0.30609697 0.78161114
0.18929161 0.30855927 0.7824254
0.18865636 0.30965999 0.77979964
0.18918864 0.31267595 0.78199977
0.18900472 0.31451216 0.78123957
0.18933332 0.31720284 0.78259778
0.18888251 0.31858638 0.78073442
0.1896272 0.32198966 0.78381252
0.18940876 0.32376349 0.78290963
0.19005249 0.32701588 0.78557044
0.25177485 -0.13261768 1.0290438
0.25329718 -0.13058348 1.0352658
0.25492033 -0.12856603 1.0418999
0.25654471 -0.12651284 1.048539
0.25687343 -0.12379882 1.0498825
0.25793958 -0.12142459 1.05424
0.25835055 -0.11872541 1.0559198
0.25986689 -0.11651262 1.0621173
0.26027575 -0.11378171 1.0637883
0.2615155 -0.1113956 1.0688554
0.26117095 -0.1083246 1.0674472
0.26125088 -0.10543263 1.0677738
0.26009616 -0.10205442 1.0630543
0.25977048 -0.099018089 1.0617232
0.25849009 -0.095635824 1.0564901
0.257891 -0.092526659 1.0540415
0.25664255 -0.089205213 1.0489389
0.25651976 -0.086290382 1.048437
0.25534728 -0.083036944 1.0436449
0.25465694 -0.079961151 1.0408233
0.25377551 -0.076842964 1.0372208
0.25344387 -0.07390482 1.0358653
0.25243369 -0.070783854 1.0317366
0.25120801 -0.067627482 1.0267271
0.24920359 -0.064297639 1.0185347
0.24836563 -0.061300583 1.0151098
0.24760485 -0.058340471 1.0120003
0.24776894 -0.055604961 1.012671
0.24704537 -0.052676503 1.0097136
0.24682891 -0.049866706 1.008829
0.24639791 -0.047020808 1.0070674
0.24649113 -0.044278726 1.0074484
0.2444118 -0.041168619 0.99894983
0.24319236 -0.038240287 0.9939658
0.24089366 -0.035181638 0.98457068
0.23983917 -0.032342244 0.98026079
0.23875077 -0.029522274 0.97581232
0.23929888 -0.026910713 0.97805256
0.23851435 -0.024151932 0.97484607
0.2386786 -0.021496173 0.97551739
0.2382164 -0.018787328 0.97362828
0.23868459 -0.016151791 0.97554183
0.23835446 -0.013460689 0.97419256
0.2382433 -0.010786893 0.97373819
0.23733526 -0.0080884285 0.97002691
0.23669577 -0.0054164422 0.96741319
0.23518246 -0.0027485648 0.96122807
0.23513891 -0.00011529573 0.96105009
0.2335031 0.002499951 0.9543643
0.23296821 0.0051026801 0.95217812
0.23151375 0.0076629934 0.94623351
0.23172322 0.010264442 0.94708961
0.23099703 0.012818661 0.94412154
0.23078683 0.015391028 0.94326246
0.22982414 0.017900078 0.93932778
0.22881259 0.02038322 0.93519342
0.22829561 0.022893304 0.93308043
0.2274017 0.025349796 0.92942691
0.22704281 0.027851896 0.92796004
0.22596839 0.030250179 0.92356873
0.22436108 0.03254709 0.91699934
0.22235639 0.03474592 0.90880591
0.22034225 0.036898274 0.90057379
0.21867469 0.039067443 0.89375818
0.21798733 0.04138536 0.89094883
0.21746096 0.043720257 0.88879752
0.21778816 0.046224531 0.89013481
0.21710619 0.048510641 0.88734752
0.21673505 0.050854411 0.88583058
0.21581429 0.053054757 0.88206732
0.21597686 0.055512927 0.88273174
0.21579881 0.057883386 0.88200402
0.21554393 0.060228378 0.88096225
0.21526197 0.062559791 0.87980986
0.21504436 0.064904332 0.8789205
0.21454951 0.067157194 0.87689793
0.21420322 0.069447152 0.87548262
0.21331415 0.071547307 0.87184882
0.21230665 0.073586494 0.86773098
0.21124034 0.075582087 0.8633728
0.21109705 0.07789439 0.86278719
0.21017927 0.079909027 0.85903609
0.20991784 0.082160003 0.85796756
0.20923787 0.084236629 0.85518843
0.20951274 0.086693116 0.85631186
0.20869647 0.088692054 0.85297561
0.20903684 0.09117721 0.85436678
0.20847812 0.093267754 0.85208321
0.20908123 0.095878579 0.85454822
0.20860101 0.097993985 0.85258549
0.20902972 0.1005358 0.85433769
0.20785168 0.10229644 0.84952283
0.20746088 0.10442697 0.8479256
0.20681153 0.1064157 0.84527159
0.20728543 0.10898044 0.8472085
0.20668866 0.11098091 0.84476936
0.20678751 0.11334931 0.84517342
0.20590989 0.11517374 0.84158647
0.20591596 0.11748268 0.84161121
0.20539932 0.1194877 0.83949965
0.20612276 0.12221644 0.84245646
0.20584875 0.12435878 0.84133655
0.20598564 0.12674782 0.841896
0.20522393 0.12857693 0.83878285
0.20546073 0.13102576 0.83975065
0.20484245 0.132925 0.83722365
0.20522627 0.13547193 0.83879238
0.20493163 0.13757196 0.83758813
0.20556504 0.1402988 0.84017694
0.20481063 0.1420771 0.83709359
0.20520756 0.14465009 0.83871591
0.20498198 0.14678618 0.83779395
0.20511833 0.14918046 0.83835119
0.20460489 0.15109792 0.83625269
0.20468746 0.1534507 0.83659017
0.2047022 0.15575372 0.83665043
0.20448177 0.15787549 0.83574945
0.20396098 0.15975711 0.83362097
0.20449644 0.16246618 0.83580947
0.20463583 0.16486815 0.83637917
0.20478272 0.16727935 0.83697951
0.20429718 0.16917017 0.83499503
0.20488527 0.17195116 0.83739865
0.20497151 0.17431854 0.83775109
0.20411864 0.17587864 0.83426529
0.20453171 0.17852463 0.83595359
0.20379311 0.18016173 0.8329348
0.2038818 0.18252292 0.83329731
0.20342077 0.18438783 0.83141303
0.203826 0.18703729 0.83306921
0.20369418 0.18919703 0.8325305
0.20443967 0.19217849 0.83557743
0.20397282 0.19402343 0.8336693
0.20459422 0.1969053 0.83620912
0.2039744 0.19859259 0.83367574
0.20475133 0.20164154 0.83685118
0.20407814 0.20326357 0.83409977
0.20494018 0.20641682 0.83762312
0.20478997 0.20855846 0.83700913
0.20534439 0.21142226 0.83927518
0.20476054 0.21311374 0.83688885
0.20503318 0.21569319 0.83800322
0.20458283 0.21751004 0.83616251
0.20486638 0.22010534 0.83732146
0.2043135 0.22179894 0.83506173
0.20465888 0.22446536 0.83647335
0.20426723 0.22632292 0.83487266
0.20421381 0.22855021 0.83465427
0.20363729 0.23018506 0.83229792
0.20383482 0.2326906 0.83310527
0.20359246 0.23469348 0.83211476
0.20405155 0.23750739 0.83399111
0.20385607 0.23956235 0.83319211
0.20436221 0.2424453 0.83526081
0.20360965 0.24383225 0.83218497
0.20333809 0.24578373 0.83107507
0.202408 0.24692579 0.82727367
0.20237043 0.24914582 0.82712013
0.20094402 0.24963959 0.82129014
0.20035027 0.25114521 0.81886339
0.19815747 0.25061518 0.80990106
0.19741498 0.25188652 0.80686641
0.19629636 0.25265709 0.80229443
0.19644284 0.25504512 0.8028931
0.1955782 0.25611237 0.7993592
0.19515529 0.25774363 0.79763067
0.19437841 0.25889394 0.79445541
0.19472185 0.26153162 0.79585916
0.1942559 0.26308081 0.79395473
0.19429241 0.26530567 0.79410398
0.193637 0.26657879 0.79142517
0.19370185 0.26883689 0.79169023
0.19326717 0.27039751 0.78991359
0.19317779 0.27243543 0.78954834
0.19255497 0.27371302 0.78700274
0.19291909 0.27639064 0.78849095
0.19248115 0.27791837 0.78670102
0.19280949 0.28055125 0.78804302
0.19227967 0.28193319 0.78587753
0.19299215 0.28513876 0.78878957
0.19326194 0.28770125 0.78989226
0.19356039 0.29031274 0.79111207
0.19344753 0.29230946 0.79065078
0.19303122 0.29384169 0.78894925
0.19240661 0.29504517 0.78639638
0.19200104 0.29657301 0.78473878
0.19119294 0.2974655 0.78143591
0.19110465 0.29946786 0.78107506
0.19065897 0.30090418 0.77925348
0.19138527 0.30419332 0.78222197
0.19159392 0.30667016 0.7830748
0.19206057 0.30956754 0.78498209
0.19163463 0.31102663 0.78324115
0.19175099 0.31336248 0.78371674
0.19135779 0.31486246 0.78210968
0.19128367 0.31688222 0.78180677
0.19064341 0.31795615 0.77918994
0.19119927 0.32102397 0.78146178
0.19116209 0.32310191 0.78130984
0.19212575 0.32688186 0.78524846
0.25393531 -0.13227464 1.026382
0.25493976 -0.12997501 1.0304419
0.25685707 -0.12810841 1.0381914
0.25890392 -0.12626255 1.0464646
0.25931928 -0.12359375 1.0481434
0.26055256 -0.12129654 1.0531282
0.26110768 -0.11866383 1.055372
0.26258826 -0.11642914 1.0613563
0.26282001 -0.11362179 1.0622931
0.26366121 -0.11106603 1.0656931
0.2633813 -0.10803179 1.0645617
0.26375684 -0.10526534 1.0660796
0.26268753 -0.10192993 1.0617576
0.26252624 -0.098960496 1.0611057
0.26143575 -0.095654637 1.056698
0.2609576 -0.092590198 1.0547653
0.25916472 -0.089084439 1.0475187
0.25891122 -0.086130477 1.0464941
0.25793564 -0.082949899 1.0425509
0.25799787 -0.080113195 1.0428025
0.25703609 -0.076968484 1.038915
0.25653687 -0.073978446 1.0368972
0.25543988 -0.070833713 1.0324633
0.25421119 -0.067678198 1.0274971
0.25219083 -0.064347908 1.019331
0.25113833 -0.061298598 1.0150769
0.25040716 -0.05834746 1.0121216
0.25028673 -0.055548061 1.0116347
0.24969278 -0.052651484 1.0092341
0.24970526 -0.049889222 1.0092845
0.24919821 -0.047028631 1.0072351
0.24893613 -0.044222791 1.0061758
0.24690343 -0.04112782 0.99795979
0.24594082 -0.038244255 0.99406898
0.24395359 -0.035234027 0.98603678
0.24338813 -0.032457408 0.9837513
0.24221459 -0.029618954 0.97900796
0.24254905 -0.026974196 0.98035979
0.24128477 -0.024161933 0.97524971
0.2412836 -0.02149017 0.97524494
0.24096934 -0.018794015 0.97397476
0.24147458 -0.016159659 0.97601694
0.2411897 -0.013469987 0.97486544
0.24081346 -0.010782534 0.97334474
0.23970562 -0.0080787558 0.96886694
0.23904274 -0.0054095807 0.96618766
0.23796171 -0.0027502521 0.96181822
0.23833051 -0.00011556672 0.96330887
0.23717666 0.0025111646 0.95864511
0.23645847 0.0051217801 0.95574224
0.23518534 0.0076983259 0.95059639
0.23534511 0.010309448 0.95124215
0.23455675 0.012872076 0.94805568
0.23339407 0.015392559 0.94335628
0.23205446 0.017873663 0.93794167
0.23093602 0.020344591 0.93342108
0.23034261 0.022842815 0.93102258
0.22935277 0.025284195 0.92702174
0.22903186 0.027784804 0.92572463
0.22793558 0.030175658 0.92129356
0.22584975 0.032400273 0.91286284
0.22332928 0.034511533 0.90267533
0.22231241 0.036815979 0.89856523
0.22180267 0.039187506 0.89650494
0.22183476 0.041649472 0.89663464
0.2204324 0.043826945 0.89096642
0.21990278 0.046156552 0.88882577
0.21877868 0.048343066 0.88428229
0.21863788 0.050732855 0.88371319
0.21821219 0.053050261 0.88199258
0.21869281 0.05558861 0.88393521
0.21843974 0.057942994 0.88291234
0.2179129 0.06021611 0.88078284
0.21729086 0.062450204 0.87826866
0.21730402 0.06486012 0.87832183
0.2167487 0.067094348 0.87607729
0.21659383 0.069444671 0.87545133
0.21581851 0.071585774 0.87231755
0.21520518 0.073765226 0.86983854
0.21385048 0.075668767 0.86436296
0.21370429 0.077983305 0.86377203
0.21279471 0.08000759 0.86009562
0.21248381 0.08224345 0.85883898
0.2115986 0.084243782 0.85526109
0.2118448 0.086687483 0.85625619
0.21096075 0.088661619 0.85268295
0.21145818 0.091212071 0.85469347
0.21083167 0.093276292 0.85216123
0.21173961 0.096022509 0.85583103
0.21118475 0.098109253 0.85358834
0.2112505 0.1004789 0.85385406
0.20979239 0.10210832 0.84796053
0.20932221 0.10419723 0.84606016
0.20902751 0.10636502 0.84486902
0.20971084 0.10903478 0.84763092
0.20870377 0.11082209 0.84356046
0.20843679 0.11298826 0.84248132
0.20725788 0.1146441 0.83771634
0.20793501 0.11732104 0.84045321
0.20752762 0.11938906 0.83880657
0.20850894 0.12226236 0.84277296
0.20794234 0.12423259 0.84048283
0.20793942 0.12653328 0.84047103
0.20705715 0.12828907 0.83690494
0.20734344 0.13076231 0.83806217
0.2069997 0.13283755 0.83667278
0.20743375 0.13541293 0.83842713
0.20721985 0.13756777 0.83756262
0.20792735 0.14033976 0.84042221
0.20717704 0.14212735 0.83738959
0.20751441 0.14465651 0.83875316
0.20692715 0.14653836 0.83637953
0.20704155 0.14891188 0.83684188
0.20674495 0.15098777 0.83564311
0.20698485 0.15345484 0.83661276
0.20699008 0.15575063 0.83663386
0.20693964 0.15800406 0.83643001
0.20635416 0.15984191 0.83406353
0.20666644 0.16237216 0.83532578
0.20661445 0.16461907 0.83511561
0.20666108 0.1669445 0.83530408
0.20616901 0.16882983 0.83331519
0.20638472 0.17129171 0.83418709
0.20677878 0.17390835 0.83577985
0.2060699 0.1755939 0.83291459
0.20670229 0.1784215 0.83547068
0.20599815 0.18009464 0.83262461
0.20622462 0.18257608 0.83353996
0.20548257 0.18419436 0.83054066
0.20586896 0.18682024 0.83210242
0.20565051 0.1888991 0.83121949
0.20653966 0.19200276 0.83481336
0.20636347 0.19412395 0.8341012
0.2068629 0.19688427 0.83611983
0.20641409 0.19874267 0.83430576
0.20711708 0.20171288 0.83714724
0.20688049 0.20377317 0.83619094
0.20737542 0.20655684 0.83819139
0.20743474 0.20891279 0.83843118
0.20793638 0.21172042 0.84045875
0.20756577 0.21364136 0.83896077
0.20776525 0.21614718 0.83976704
0.20737858 0.21804114 0.83820415
0.20756304 0.22053336 0.83894974
0.20721702 0.22246015 0.83755118
0.20736219 0.22491205 0.83813792
0.20684533 0.22664174 0.83604878
0.20663787 0.22870249 0.83521032
0.20592241 0.23019074 0.83231848
0.20621614 0.23280244 0.83350569
0.20586827 0.23468924 0.83209968
0.20670299 0.23792954 0.83547348
0.20638905 0.23985346 0.83420461
0.20703179 0.2428928 0.83680248
0.20614158 0.24413091 0.83320433
0.20610683 0.2463719 0.83306384
0.2049174 0.24721909 0.82825631
0.20501886 0.24961159 0.82866639
0.20391731 0.25052834 0.82421404
0.20357585 0.25236297 0.8228339
0.2011531 0.25158691 0.81304139
0.19987716 0.25220424 0.80788416
0.19862714 0.25282627 0.80283171
0.19878308 0.25522584 0.80346203
0.19820242 0.25667489 0.80111498
0.19784416 0.2584016 0.79966694
0.19669133 0.25907382 0.79500735
0.19680452 0.26140204 0.79546487
0.19643217 0.2630825 0.79395986
0.19670646 0.26562792 0.7950685
0.19592313 0.26673955 0.79190236
0.19566405 0.26855332 0.79085517
0.19527031 0.27017507 0.78926373
0.19551741 0.27268183 0.79026246
0.19515784 0.27434126 0.78880912
0.19532301 0.27673617 0.78947669
0.19479358 0.27814296 0.78733683
0.19516473 0.2808339 0.78883696
0.19455206 0.28210652 0.78636062
0.19513495 0.28511238 0.78871661
0.19521131 0.28738543 0.78902525
0.19563965 0.29018229 0.79075658
0.1954463 0.29205963 0.78997505
0.19511992 0.29373237 0.78865582
0.19473642 0.29531133 0.7871058
0.19451834 0.29713443 0.78622431
0.19377127 0.29813883 0.78320473
0.19342907 0.29975408 0.78182161
0.19281802 0.30094212 0.77935177
0.19336213 0.3039324 0.78155106
0.19371991 0.30663976 0.78299713
0.19412608 0.30943218 0.78463888
0.19374172 0.31096473 0.78308529
0.19377372 0.3131617 0.78321463
0.19323039 0.3144232 0.78101856
0.19326934 0.31662655 0.78117597
0.19262446 0.31770295 0.77856946
0.19335189 0.32104364 0.78150964
0.19325876 0.32302889 0.78113323
0.19423036 0.32680354 0.78506035
0.2564159 -0.13210404 1.0250582
0.25709105 -0.12963636 1.027757
0.25733107 -0.12693927 1.0287167
0.25980684 -0.12531531 1.0386139
0.26034346 -0.12272301 1.0407591
0.26282692 -0.12101538 1.0506871
0.26318347 -0.11829733 1.0521125
0.26480404 -0.11612578 1.0585909
0.26493555 -0.11328204 1.0591166
0.26604626 -0.11084338 1.0635568
0.26598874 -0.10790647 1.0633268
0.26703048 -0.10540474 1.0674914
0.26592132 -0.10205472 1.0630574
0.26583156 -0.099109039 1.0626985
0.26438254 -0.095673457 1.0569059
0.26408753 -0.092674576 1.0557265
0.26215959 -0.089127004 1.0480193
0.26175699 -0.086123541 1.0464098
0.26112014 -0.083054379 1.043864
0.26123083 -0.080228738 1.0443064
0.26015723 -0.077049948 1.0400146
0.25899503 -0.073869385 1.0353686
0.25763148 -0.070659064 1.0299176
0.25646511 -0.067530513 1.0252548
0.25485229 -0.064314857 1.0188074
0.2538048 -0.061271004 1.0146199
0.25288582 -0.058279701 1.0109462
0.2526001 -0.05544753 1.0098039
0.25240266 -0.052640032 1.0090146
0.25273833 -0.04994221 1.0103565
0.252038 -0.047043659 1.0075569
0.25155127 -0.044197973 1.0056111
0.24918781 -0.041053761 0.99616283
0.24839951 -0.038203571 0.99301147
0.24637502 -0.035194058 0.9849183
0.24647252 -0.032508772 0.98530811
0.24548908 -0.029690618 0.98137665
0.24570572 -0.027026003 0.9822427
0.24425377 -0.024191381 0.97643828
0.24411441 -0.02150419 0.97588122
0.24366422 -0.018796075 0.97408152
0.24395126 -0.016146611 0.97522897
0.24355061 -0.013452879 0.97362733
0.24313453 -0.010767239 0.971964
0.24218822 -0.0080730356 0.96818095
0.24158438 -0.0054072258 0.96576703
0.24089488 -0.0027536622 0.96301073
0.24146317 -0.00011580349 0.9652825
0.24073739 0.0025209512 0.96238112
0.24030437 0.0051480806 0.96065003
0.2385235 0.00772209 0.95353079
0.2386632 0.010340303 0.95408922
0.23759452 0.012895989 0.949817
0.2363003 0.015413558 0.94464326
0.23482209 0.01788876 0.93873388
0.2334601 0.020341715 0.93328911
0.23258768 0.022812856 0.92980152
0.23115413 0.025203705 0.92407066
0.23082218 0.027695332 0.92274368
0.2296122 0.030064724 0.91790664
0.22740097 0.032265544 0.90906692
0.22507817 0.03440088 0.89978117
0.2242744 0.036734149 0.896568
0.22406316 0.039153352 0.89572352
0.22411318 0.041616436 0.8959235
0.22291815 0.043835793 0.89114624
0.22221541 0.046131168 0.88833696
0.221333 0.048371881 0.88480937
0.22146776 0.05082671 0.88534808
0.22138421 0.053232003 0.88501412
0.22172627 0.055742454 0.88638151
0.22080991 0.057930253 0.88271821
0.2206921 0.060316227 0.88224727
0.21983024 0.06248812 0.87880188
0.22013538 0.064985648 0.88002169
0.21885732 0.067005143 0.8749125
0.21875425 0.069369242 0.87450045
0.21794866 0.071500629 0.87128001
0.21771657 0.073808782 0.87035221
0.21660776 0.075805038 0.86591959
0.21626781 0.078054495 0.86456054
0.21510072 0.079988919 0.85989493
0.21479815 0.082228743 0.85868537
0.21374995 0.08416833 0.85449505
0.21425389 0.086713135 0.85650963
0.21323626 0.088636518 0.85244149
0.21366943 0.09115655 0.85417318
0.21279554 0.09311413 0.8506797
0.21364371 0.095824964 0.85407037
0.21355437 0.098123603 0.85371321
0.21325275 0.10032043 0.85250747
0.2122166 0.10215706 0.84836531
0.2120769 0.10441234 0.84780681
0.21173868 0.10656466 0.84645474
0.21180883 0.10891955 0.84673518
0.21058878 0.11059841 0.84185785
0.21076927 0.11300141 0.84257936
0.20971891 0.11473498 0.83838046
0.21030141 0.11735675 0.84070909
0.20938388 0.11913777 0.83704108
0.21038753 0.12201288 0.84105331
0.20955594 0.12382554 0.83772892
0.20966205 0.12618431 0.83815312
0.20879132 0.12794682 0.83467221
0.20935352 0.13058405 0.83691972
0.20936023 0.13288102 0.83694655
0.20985775 0.13549502 0.83893543
0.20962794 0.13764237 0.83801675
0.21016558 0.14029698 0.84016603
0.20926981 0.1419908 0.83658504
0.20931645 0.14431475 0.83677155
0.20866339 0.14614964 0.8341608
0.20894551 0.14863549 0.83528864
0.2088211 0.15083386 0.8347913
0.20871639 0.15304396 0.8343727
0.20877317 0.15537195 0.83459967
0.20895658 0.15779682 0.83533293
0.20861354 0.15982237 0.83396155
0.20862386 0.16211499 0.83400279
0.20845909 0.16426988 0.83334416
0.20860775 0.16667156 0.83393842
0.20824617 0.16866325 0.83249295
0.20807195 0.17080081 0.83179647
0.20852144 0.17345339 0.83359337
0.20828003 0.17553353 0.83262831
0.20905887 0.1784794 0.83574182
0.20830566 0.18011761 0.83273077
0.20851789 0.18258467 0.83357918
0.20762827 0.1840795 0.83002275
0.20798361 0.18667226 0.83144331
0.20792843 0.18889984 0.83122277
0.2087473 0.19192983 0.83449626
0.20866846 0.19414254 0.83418107
0.20891052 0.19665563 0.83514881
0.20850803 0.19856021 0.83353978
0.20934026 0.20164528 0.83686674
0.20907207 0.20367657 0.83579457
0.20989771 0.20677958 0.83909523
0.20983984 0.2090206 0.83886385
0.21049398 0.21197739 0.84147888
0.20964248 0.21341577 0.83807492
0.20979357 0.2158671 0.8386789
0.20969 0.21805693 0.83826488
0.21028225 0.22097568 0.84063244
0.21002236 0.22300261 0.83959353
0.20989247 0.22516331 0.83907425
0.20921743 0.22673038 0.83637571
0.20902096 0.22880651 0.83559024
0.20832579 0.23032703 0.83281124
0.2086456 0.23296556 0.8340897
0.20808658 0.23462021 0.83185494
0.20877296 0.23768046 0.83459884
0.20835909 0.23949112 0.83294439
0.20883337 0.24232326 0.83484036
0.20797616 0.24360622 0.83141357
0.20817433 0.24611813 0.83220577
0.20676401 0.2467151 0.82656783
0.20670983 0.24891421 0.82635123
0.2057583 0.25002176 0.82254738
0.20586886 0.25241062 0.82298928
0.20388333 0.25220904 0.81505191
0.20234333 0.25251997 0.80889553
0.20100954 0.25305676 0.80356354
0.20083287 0.25503373 0.80285728
0.20054702 0.25686699 0.80171454
0.20014156 0.2585395 0.80009365
0.1988872 0.25909722 0.79507917
0.1985902 0.26088515 0.79389191
0.19813983 0.26246339 0.79209143
0.19842018 0.26500773 0.79321218
0.1978357 0.26639369 0.79087561
0.19827315 0.2691541 0.79262441
0.19806275 0.27103755 0.79178327
0.19858441 0.27392617 0.79386872
0.19765878 0.27481398 0.79016834
0.19767793 0.27700546 0.79024494
0.19706167 0.27830002 0.78778136
0.19759849 0.28122211 0.78992736
0.1969521 0.28245905 0.78734332
0.19702931 0.28472751 0.78765196
0.19656505 0.28620929 0.78579605
0.19716193 0.28923756 0.78818214
0.19706638 0.29125556 0.78780019
0.19705968 0.29340371 0.78777337
0.19637232 0.29453084 0.78502554
0.19620755 0.29643247 0.78436691
0.19575238 0.29788855 0.7825473
0.19592434 0.30029586 0.78323472
0.19526492 0.30142358 0.78059858
0.19565693 0.30417144 0.78216571
0.19575283 0.30646428 0.78254908
0.19631872 0.30950019 0.78481132
0.19595093 0.31106627 0.78334099
0.19589114 0.31311667 0.78310198
0.19533932 0.31437385 0.78089601
0.19540244 0.31661537 0.78114837
0.19486864 0.3178845 0.77901441
0.19542217 0.32092762 0.78122723
0.1952211 0.32273534 0.7804234
0.19601977 0.32620236 0.78361619
0.25929722 -0.13214134 1.0253476
0.25971815 -0.1295424 1.0270121
0.25915956 -0.12645638 1.0248033
0.2611101 -0.1245796 1.0325164
0.26198116 -0.12215722 1.0359608
0.26417109 -0.12031665 1.0446205
0.26465106 -0.11766835 1.0465184
0.2659376 -0.11535954 1.0516059
0.26601085 -0.11250969 1.0518956
0.26737848 -0.11019168 1.0573037
0.26824933 -0.10764469 1.0607473
0.26962787 -0.10527708 1.0661985
0.26868683 -0.10199901 1.0624772
0.26862603 -0.099065989 1.0622369
0.26705155 -0.095592439 1.0560108
0.26670322 -0.09257862 1.0546334
0.26485929 -0.089069404 1.0473419
0.26456395 -0.086104132 1.046174
0.26392969 -0.083038621 1.043666
0.26426426 -0.080281176 1.044989
0.2624779 -0.076895148 1.0379251
0.26128519 -0.073715284 1.0332087
0.25953034 -0.070408776 1.0262694
0.25885093 -0.067420378 1.0235828
0.25778046 -0.0643491 1.0193498
0.25705278 -0.061382867 1.0164723
0.25649416 -0.058470935 1.0142634
0.25556776 -0.05549125 1.0106001
0.25561768 -0.052733045 1.0107975
0.25563559 -0.049967509 1.0108683
0.25472307 -0.047029797 1.00726
0.25361705 -0.044078216 1.0028863
0.25113976 -0.040927138 0.99309033
0.25050119 -0.038109455 0.99056518
0.24866293 -0.035136092 0.9832961
0.24889004 -0.032472022 0.98419416
0.24822673 -0.029696506 0.98157126
0.24860299 -0.027048465 0.98305905
0.24756387 -0.024253609 0.97895002
0.24730852 -0.021549564 0.97794032
0.24658315 -0.018815186 0.97507197
0.24644667 -0.016135076 0.97453225
0.24554177 -0.013415941 0.970954
0.2455194 -0.01075507 0.97086555
0.24484451 -0.0080731679 0.96819681
0.24485405 -0.005421041 0.96823454
0.24429406 -0.0027622674 0.96602017
0.24486119 -0.00011616103 0.96826273
0.24420233 0.0025295333 0.96565741
0.24405119 0.005171712 0.96505976
0.24235862 0.007761254 0.95836681
0.2423581 0.010386641 0.95836473
0.24069121 0.012922551 0.95177329
0.23911922 0.015428469 0.94555706
0.23764193 0.017907465 0.93971539
0.23605986 0.020345425 0.93345934
0.2349416 0.022794107 0.92903739
0.23318224 0.025149418 0.92208028
0.23274817 0.027623905 0.92036384
0.23151799 0.029985875 0.91549927
0.22988023 0.032263987 0.90902305
0.22772025 0.034427665 0.90048176
0.22687744 0.036757953 0.89714903
0.2264902 0.039148726 0.89561772
0.22667338 0.041635882 0.8963421
0.2253406 0.043832134 0.89107186
0.22477569 0.046157189 0.88883799
0.22391242 0.048405498 0.88542432
0.22440797 0.050943587 0.88738394
0.22395739 0.053267371 0.88560218
0.22455852 0.055842929 0.88797921
0.22337039 0.05796719 0.88328099
0.22377434 0.060496107 0.88487834
0.22251125 0.062565044 0.87988365
0.22232734 0.064921752 0.87915641
0.22073475 0.066847861 0.87285876
0.22065754 0.069214799 0.87255347
0.22055803 0.07157284 0.87215996
0.2205831 0.073970489 0.87225908
0.21968788 0.076050118 0.8687191
0.21861415 0.078046612 0.86447322
0.21736056 0.079953678 0.85951608
0.21705756 0.082193553 0.85831791
0.21630466 0.084251627 0.85534072
0.21684381 0.086810641 0.85747272
0.21580108 0.088730916 0.85334939
0.21615826 0.091219366 0.85476178
0.21512979 0.093115792 0.85069489
0.21534915 0.095543563 0.85156232
0.21492447 0.097683363 0.84988296
0.21532047 0.10019586 0.85144889
0.21504588 0.10239763 0.85036308
0.21503906 0.10472384 0.85033613
0.21383411 0.10645344 0.84557134
0.21347293 0.10858613 0.84414315
0.21245626 0.11037048 0.84012288
0.21296993 0.11294437 0.84215409
0.21217693 0.11482228 0.83901834
0.21266444 0.11738984 0.84094608
0.21193387 0.11928239 0.83805716
0.21249594 0.12190066 0.84027976
0.21179344 0.12379196 0.83750182
0.21154295 0.12593715 0.83651131
0.21083316 0.1277985 0.83370459
0.21131971 0.13038258 0.83562857
0.21147305 0.13276803 0.83623493
0.21199775 0.13539398 0.83830976
0.2116003 0.13743235 0.83673811
0.21181735 0.13986789 0.83759642
0.21131602 0.14182597 0.83561397
0.21133737 0.14412968 0.83569843
0.2107435 0.14600758 0.83335006
0.2108966 0.14839825 0.83395541
0.21064915 0.15050603 0.83297694
0.21058998 0.15274502 0.83274293
0.21027534 0.15479466 0.83149874
0.21075302 0.15742935 0.83338767
0.21056427 0.15956935 0.8326413
0.21058464 0.16186599 0.83272183
0.20990588 0.16361813 0.83003783
0.21010503 0.16604938 0.83082533
0.21021411 0.16841277 0.83125663
0.21013935 0.17062926 0.83096105
0.21048194 0.17318755 0.83231574
0.21024933 0.17527373 0.83139592
0.21052265 0.17778212 0.83247674
0.20994872 0.17957176 0.83020723
0.21045697 0.18228629 0.83221698
0.21001571 0.18417916 0.83047211
0.21036567 0.1867649 0.83185595
0.20994674 0.18866727 0.83019936
0.21032614 0.19128662 0.83169967
0.21019995 0.1934489 0.83120066
0.21074806 0.1962363 0.83336806
0.21070455 0.19847831 0.83319604
0.21150491 0.20152339 0.83636087
0.2114296 0.20374201 0.83606309
0.21213743 0.20672214 0.83886212
0.21212506 0.20900798 0.83881319
0.21265316 0.21183194 0.84090149
0.21209292 0.21357141 0.83868611
0.21214388 0.21592084 0.83888763
0.21173568 0.21779904 0.83727348
0.212051 0.22042048 0.83852035
0.21192959 0.22259004 0.83804023
0.21196374 0.22492208 0.8381753
0.21136701 0.22657853 0.83581561
0.21121231 0.22870071 0.83520389
0.2110576 0.23081955 0.8345921
0.21158136 0.23368436 0.83666325
0.21078557 0.23508883 0.83351642
0.21079876 0.23738705 0.83356851
0.21021524 0.23900713 0.8312611
0.21052411 0.24163887 0.83248252
0.2100579 0.24337925 0.83063895
0.21046491 0.24613073 0.83224839
0.20956425 0.24734761 0.82868689
0.20930126 0.24930452 0.82764697
0.20828214 0.25034687 0.82361704
0.20824823 0.25256205 0.82348293
0.20612381 0.25221843 0.81508225
0.20470029 0.25269404 0.80945319
0.20314983 0.25298074 0.80332214
0.20302378 0.25502306 0.80282366
0.20261857 0.25670898 0.80122137
0.2021099 0.25825393 0.79920989
0.20110214 0.25914472 0.79522491
0.20104356 0.26124707 0.79499322
0.2007553 0.26304722 0.79385334
0.20068014 0.26512265 0.79355615
0.19988948 0.26624349 0.79042965
0.2004575 0.26917154 0.79267573
0.20032682 0.27116615 0.79215902
0.20073697 0.27389586 0.79378086
0.1997712 0.27474219 0.78996187
0.19991224 0.27710176 0.7905196
0.19940068 0.27855274 0.78849673
0.1999488 0.28148443 0.7906642
0.19917668 0.28255507 0.78761101
0.19930486 0.28489596 0.78811789
0.19863787 0.28609431 0.78548038
0.19913834 0.28897232 0.78745937
0.19866382 0.29043585 0.78558296
0.19904949 0.29315591 0.787108
0.19843128 0.294395 0.78466344
0.19842184 0.29653043 0.78462607
0.19767685 0.29755846 0.78168017
0.19780973 0.29990131 0.78220558
0.19693722 0.30071187 0.77875543
0.19739752 0.30355304 0.78057557
0.19738212 0.30566758 0.78051472
0.19816796 0.30903125 0.78362221
0.19792627 0.31079841 0.78266644
0.19806407 0.31316039 0.78321135
0.19760521 0.31457549 0.78139687
0.19732398 0.31626534 0.78028476
0.19699854 0.31787777 0.7789979
0.197629 0.32103598 0.78149098
0.19778052 0.32342458 0.78209007
0.19848712 0.32673022 0.78488421
0.26220086 -0.1321891 1.0257182
0.26255047 -0.12955169 1.0270859
0.26160416 -0.12628125 1.023384
0.26280937 -0.12404658 1.0280987
0.26392061 -0.12174273 1.0324458
0.26631415 -0.11999286 1.0418093
0.26700115 -0.11744104 1.0444968
0.26794958 -0.11498668 1.048207
0.26810122 -0.11217861 1.0488002
0.26947054 -0.10986373 1.0541569
0.2697807 -0.10709903 1.0553702
0.27059916 -0.10452404 1.0585721
0.26979673 -0.10132276 1.0554329
0.26958463 -0.098354064 1.0546032
0.26900342 -0.095259197 1.0523295
0.26883629 -0.092318989 1.0516758
0.26735634 -0.088945612 1.0458863
0.26752925 -0.086136118 1.0465627
0.26654628 -0.082963139 1.0427173
0.26680624 -0.080184788 1.0437343
0.26519996 -0.076859988 1.0374506
0.26433501 -0.073776513 1.0340669
0.26200846 -0.070319325 1.0249656
0.26110536 -0.067278765 1.0214328
0.26004517 -0.064218774 1.0172853
0.26014975 -0.061456662 1.0176944
0.25977787 -0.058584865 1.0162396
0.25878051 -0.055586681 1.012338
0.25837019 -0.052729677 1.0107329
0.25789514 -0.049868956 1.0088745
0.25663143 -0.046874359 1.0039309
0.25578997 -0.043979447 1.0006391
0.25361818 -0.040888105 0.99214315
0.25300661 -0.038078122 0.98975074
0.25140184 -0.035142414 0.98347294
0.25114918 -0.032415614 0.98248452
0.25055063 -0.029653296 0.98014307
0.2508738 -0.027003018 0.98140734
0.25055745 -0.024283828 0.98016977
0.25050476 -0.021594148 0.9799636
0.24897248 -0.018793911 0.9739694
0.24884371 -0.016117418 0.97346568
0.2480863 -0.013409706 0.97050273
0.24862106 -0.010774226 0.97259468
0.24773714 -0.0080810068 0.96913683
0.24788535 -0.0054293391 0.96971661
0.24716125 -0.0027647375 0.96688396
0.24768813 -0.00011624289 0.96894509
0.24691588 0.0025302318 0.96592408
0.24697931 0.0051776739 0.96617222
0.24526839 0.0077702622 0.95947915
0.24508986 0.01039115 0.95878077
0.24347283 0.012931807 0.95245504
0.24224399 0.015462584 0.94764787
0.24123627 0.017983506 0.94370568
0.23947534 0.020418609 0.93681705
0.23827702 0.022869967 0.93212926
0.23608518 0.025189636 0.92355484
0.23526789 0.027623719 0.92035764
0.23413359 0.029999666 0.91592032
0.23297442 0.032347847 0.91138572
0.23116548 0.034573998 0.90430921
0.22979094 0.03683101 0.8989321
0.22905846 0.03916835 0.89606667
0.22893728 0.041601069 0.89559263
0.22794724 0.043863993 0.89171958
0.22741778 0.04619927 0.88964838
0.22682254 0.048509125 0.8873198
0.22744845 0.051080473 0.88976836
0.22654334 0.053304989 0.88622761
0.22687282 0.05581383 0.8875165
0.22557904 0.057912998 0.88245529
0.22629356 0.06052155 0.88525051
0.22501053 0.062589765 0.88023132
0.22497751 0.064991586 0.88010216
0.22325426 0.066886313 0.87336087
0.22328563 0.069288582 0.8734836
0.22325225 0.071670748 0.873353
0.22329815 0.074078485 0.87353253
0.22265935 0.076252736 0.87103361
0.22111416 0.078093164 0.86498886
0.21990542 0.080022909 0.86026037
0.21979061 0.082336552 0.85981119
0.21933046 0.084514663 0.85801113
0.2194616 0.086917087 0.85852414
0.21796204 0.088659018 0.85265791
0.21844487 0.09119641 0.85454673
0.21766241 0.09320236 0.85148579
0.21766278 0.095535144 0.85148728
0.21691489 0.097531483 0.84856153
0.21739055 0.10007506 0.85042232
0.21724308 0.10233528 0.84984535
0.21711577 0.10460208 0.84934741
0.21596806 0.10636358 0.84485757
0.2152722 0.10832787 0.84213543
0.21463837 0.11030912 0.83965588
0.21489276 0.1127428 0.84065104
0.21466076 0.11492153 0.83974349
0.21503124 0.11742428 0.84119278
0.21450216 0.1194341 0.83912301
0.21472913 0.12186167 0.84001094
0.21412525 0.12381366 0.83764857
0.21369494 0.12585494 0.83596528
0.21298394 0.12771866 0.83318383
0.21327066 0.13017614 0.83430547
0.21346103 0.13257992 0.83505017
0.21388471 0.13513522 0.83670759
0.21359105 0.13723867 0.83555883
0.21370274 0.13960059 0.83599573
0.21312749 0.14150883 0.83374542
0.21289191 0.1436339 0.83282381
0.21252735 0.14566551 0.83139765
0.21296081 0.14824484 0.83309335
0.21293117 0.15050612 0.83297741
0.21276617 0.15266962 0.8323319
0.2124576 0.15472504 0.83112478
0.21294248 0.1573602 0.83302164
0.21273772 0.15948874 0.83222061
0.21311551 0.16205585 0.83369851
0.21224175 0.16366595 0.83028042
0.21269086 0.16629161 0.83203733
0.21271297 0.16858846 0.83212382
0.21238305 0.17060301 0.83083314
0.21282786 0.17324112 0.83257324
0.21243516 0.17519806 0.83103698
0.21254586 0.17756714 0.83147007
0.21191353 0.17930987 0.82899642
0.21240325 0.1820005 0.83091223
0.21243046 0.18430036 0.83101863
0.21289383 0.18698388 0.83283132
0.21234395 0.18877654 0.83068019
0.21253772 0.1912265 0.83143824
0.21213683 0.19313921 0.82986999
0.21259683 0.19583634 0.83166951
0.21250936 0.19803317 0.83132732
0.21336535 0.20111738 0.83467585
0.21327788 0.20332058 0.83433372
0.21414635 0.20644343 0.83773112
0.21441084 0.20899616 0.8387658
0.21512292 0.21199568 0.84155142
0.21474142 0.21392103 0.84005904
0.21464588 0.21612613 0.83968526
0.21422446 0.21799757 0.83803666
0.21420437 0.22027269 0.8379581
0.21373075 0.22207613 0.83610535
0.21374731 0.22438398 0.83617008
0.21306317 0.22594912 0.83349377
0.21338373 0.22857583 0.83474779
0.21328145 0.23075195 0.83434767
0.21398197 0.23380303 0.83708811
0.21310294 0.23512632 0.83364934
0.21297342 0.23726577 0.83314264
0.21233262 0.23882738 0.83063591
0.21269727 0.24151692 0.83206236
0.21233316 0.24337897 0.83063799
0.21270739 0.24608742 0.83210194
0.2118921 0.24741498 0.82891262
0.21167152 0.24942581 0.82804966
0.2107397 0.25058624 0.82440448
0.21076304 0.25287268 0.82449573
0.20863661 0.25255728 0.81617725
0.20744877 0.25334254 0.81153047
0.20578091 0.25351098 0.80500591
0.20551191 0.25538197 0.80395359
0.20482184 0.25671944 0.80125403
0.20426731 0.25821346 0.79908472
0.20342603 0.25933006 0.79579371
0.2031751 0.26118752 0.79481208
0.20275457 0.2628198 0.793167
0.20246981 0.26462045 0.79205304
0.20201363 0.26618916 0.79026842
0.2027984 0.26939657 0.79333842
0.20249847 0.27116823 0.7921651
0.20287293 0.27384382 0.79363
0.20183891 0.27461109 0.78958493
0.20210339 0.2771368 0.79061961
0.20150398 0.2784743 0.78827471
0.2022073 0.28161326 0.79102606
0.20174891 0.28313693 0.78923285
0.20179836 0.28536892 0.78942633
0.20094791 0.28631979 0.78609943
0.20095551 0.28848416 0.78612912
0.20034392 0.28975323 0.78373665
0.20088664 0.29269099 0.7858597
0.2004744 0.29423878 0.78424704
0.20040761 0.29628843 0.78398579
