# .PCD v0.7 - Point Cloud Data file format
VERSION 0.7
FIELDS x y z
SIZE 4 4 4
TYPE F F F
COUNT 1 1 1
WIDTH 1383
HEIGHT 1
VIEWPOINT 0 0 0 1 0 0 0
POINTS 1383
DATA ascii
0.034084145 -0.1715645 0.86929184
0.033860549 -0.16807325 0.86358917
0.033970833 -0.16624717 0.86640185
0.033862878 -0.16335294 0.86364853
0.033852924 -0.16093969 0.86339474
0.033643264 -0.15759237 0.85804749
0.033516914 -0.15465875 0.85482502
0.033393238 -0.15175495 0.85167074
0.033447858 -0.14966623 0.85306382
0.033383019 -0.1470437 0.85141015
0.033453841 -0.14501829 0.85321635
0.033410724 -0.14249705 0.8521167
0.03347506 -0.14043261 0.85375756
0.033275548 -0.13727072 0.84866917
0.033201478 -0.13464545 0.84678006
0.032946449 -0.1313093 0.8402757
0.032975174 -0.12911987 0.84100837
0.032861721 -0.12637965 0.8381148
0.032981265 -0.12453505 0.84116364
0.032763787 -0.12142472 0.83561707
0.032698512 -0.11889823 0.83395225
0.032500215 -0.11590645 0.82889479
0.032578319 -0.11390882 0.83088678
0.032489903 -0.11132967 0.82863182
0.032575995 -0.10934866 0.83082753
0.03243468 -0.10660815 0.82722342
0.032536201 -0.10466859 0.82981265
0.032491278 -0.10225397 0.82866687
0.032654252 -0.10048538 0.8328234
0.032588672 -0.098006681 0.83115089
0.032673433 -0.095978759 0.83331263
0.032566637 -0.093389675 0.83058888
0.032620132 -0.091263972 0.83195323
0.032540027 -0.088766351 0.82991022
0.032624453 -0.086717248 0.83206344
0.032577828 -0.084317178 0.83087432
0.032685343 -0.082311779 0.83361638
0.032539569 -0.079671197 0.82989854
0.032527912 -0.077370003 0.82960123
0.032336257 -0.07465487 0.82471323
0.032420631 -0.072584495 0.82686514
0.03223636 -0.069919653 0.82216543
0.032248702 -0.067693263 0.82248014
0.032057744 -0.065052614 0.81760991
0.032100767 -0.062897101 0.81870717
0.031996224 -0.060456757 0.81604093
0.031988736 -0.058207612 0.81584996
0.031804316 -0.055649932 0.81114644
0.031832933 -0.053475894 0.81187624
0.031745568 -0.051111136 0.8096481
0.031820927 -0.049009204 0.81157011
0.031682521 -0.046582438 0.80804014
0.031658772 -0.044335585 0.80743444
0.031485174 -0.041892663 0.80300689
0.031435207 -0.039629869 0.80173254
0.031297203 -0.037269216 0.79821289
0.031344116 -0.035135128 0.79940933
0.031222994 -0.032817867 0.7963202
0.031234384 -0.030647555 0.79661071
0.031046703 -0.028294228 0.79182404
0.031081868 -0.026154645 0.79272091
0.030966507 -0.023894005 0.78977871
0.031109843 -0.021831021 0.79343438
0.03106905 -0.01963166 0.79239398
0.031186691 -0.017527042 0.7953943
0.031048639 -0.01528015 0.7918734
0.031126205 -0.013143595 0.79385167
0.031062108 -0.010946281 0.7922169
0.031178264 -0.0088088522 0.79517943
0.031017195 -0.0065962346 0.79107147
0.031013008 -0.0044285259 0.79096466
0.030891087 -0.0022528169 0.78785515
0.031104229 -9.5169955e-05 0.79329121
0.031083399 0.0020766295 0.79275995
0.030916885 0.062548347 0.78851312
0.030566333 0.063974753 0.77957255
0.030420825 0.065795653 0.77586144
0.030136701 0.06728673 0.76861507
0.030082665 0.069267899 0.76723695
0.029833639 0.070778906 0.76088572
0.029850477 0.072904453 0.76131517
0.029712386 0.074643135 0.75779325
0.029849628 0.07707344 0.76129347
0.029733455 0.078850903 0.75833058
0.029778115 0.081049874 0.75946963
0.029671445 0.082832627 0.75674909
0.029794466 0.085257739 0.75988662
0.029823398 0.087424234 0.76062453
0.029897576 0.089730561 0.76251638
0.029857136 0.091695249 0.76148498
0.029923597 0.093990058 0.76318002
0.029934071 0.09611439 0.76344717
0.029995333 0.098406807 0.76500958
0.02997306 0.1004279 0.76444155
0.029966211 0.10249863 0.76426685
0.029874921 0.10427368 0.76193857
0.029840389 0.10623804 0.76105785
0.029700192 0.107814 0.75748223
0.029736649 0.11002399 0.75841206
0.029542116 0.11136828 0.75345063
0.029536081 0.11340915 0.75329673
0.029402472 0.11495042 0.74988908
0.029461958 0.11724143 0.75140625
0.029400541 0.11905119 0.74983984
0.029446926 0.12129642 0.75102288
0.029372625 0.12304257 0.74912786
0.029430656 0.12534192 0.75060791
0.02944633 0.12746604 0.75100768
0.029569743 0.13006623 0.75415522
0.029513793 0.13188221 0.75272828
0.029465934 0.13372707 0.75150764
0.029393792 0.13545334 0.7496677
0.029461304 0.13782287 0.75138956
0.029429404 0.1397298 0.75057596
0.029444253 0.14185752 0.75095469
0.029331053 0.14336145 0.74806762
0.029389126 0.14569865 0.74954873
0.029271817 0.14716224 0.74655682
0.02931666 0.14943598 0.74770051
0.029197657 0.15086937 0.74466544
0.0292944 0.15341599 0.74713278
0.029217476 0.15505452 0.74517089
0.029236602 0.15719873 0.7456587
0.029120497 0.15860905 0.74269754
0.029130774 0.16070032 0.74295962
0.029047992 0.16227318 0.74084836
0.02905681 0.1643526 0.74107325
0.028896417 0.16546431 0.73698252
0.02893574 0.16771115 0.73798543
0.02893546 0.16973118 0.73797828
0.029095987 0.1727057 0.7420724
0.029092023 0.17471477 0.74197131
0.029065633 0.17658705 0.74129826
0.029053934 0.17854591 0.74099988
0.029054889 0.18058179 0.74102426
0.029097421 0.18287911 0.742109
0.029097794 0.18491445 0.74211848
0.029061435 0.18671387 0.74119121
0.029004052 0.18837164 0.73972768
0.028862176 0.18946676 0.73610926
0.028825013 0.19123675 0.73516142
0.028726725 0.19259173 0.73265463
0.028792173 0.19504216 0.73432386
0.028891485 0.19773352 0.73685676
0.028807791 0.19917345 0.7347222
0.028759502 0.20084895 0.73349059
0.028614182 0.20183331 0.72978431
0.028618481 0.20386316 0.72989398
0.028585622 0.20562631 0.72905594
0.02862284 0.20789385 0.73000515
0.028524382 0.20917167 0.72749406
0.028374074 0.21005188 0.72366053
0.028201111 0.2107418 0.71924925
0.028176831 0.21252902 0.71863002
0.028091978 0.21385172 0.71646589
0.028124068 0.21606098 0.71728432
0.028058119 0.21751469 0.71560234
0.028217386 0.2207209 0.71966434
0.028149165 0.22215399 0.71792442
0.028115673 0.22385405 0.71707022
0.027902124 0.22410326 0.71162379
0.02790878 0.22610664 0.71179354
0.027774159 0.22695652 0.70836014
0.027766824 0.22883658 0.70817304
0.027686561 0.23010951 0.70612597
0.02773517 0.23245132 0.70736575
0.027679438 0.23391813 0.70594436
0.027737824 0.23634954 0.70743346
0.027703203 0.23799013 0.70655048
0.027747372 0.24030821 0.70767695
0.027630519 0.24122669 0.70469671
0.027664654 0.24345759 0.7055673
0.027642926 0.24519773 0.70501316
0.027720388 0.24782158 0.70698875
0.027621012 0.24886298 0.70445424
0.027632708 0.25089899 0.7047525
0.02755546 0.25212285 0.70278239
0.027586805 0.25433707 0.70358181
0.027461762 0.25510293 0.70039266
0.038792953 -0.26358294 0.92477453
0.038743868 -0.26071927 0.92360443
0.038543914 -0.25685659 0.91883773
0.038615931 -0.25481468 0.92055458
0.038469795 -0.25133809 0.91707087
0.038485281 -0.24892597 0.91744006
0.038332738 -0.24543597 0.91380358
0.038367886 -0.24315539 0.91464144
0.038166448 -0.23938632 0.90983945
0.038001738 -0.23587152 0.905913
0.03797441 -0.23322198 0.90526152
0.037896194 -0.23026678 0.9033969
0.037905023 -0.22784503 0.90360737
0.03781141 -0.22481303 0.90137577
0.037813168 -0.22235408 0.90141767
0.03769901 -0.21922086 0.8986963
0.037865568 -0.21771659 0.90266687
0.037837982 -0.21508695 0.90200925
0.037951637 -0.21325456 0.90471858
0.037877508 -0.21036443 0.90295148
0.037950676 -0.20829242 0.90469575
0.037850838 -0.20527259 0.90231568
0.037903935 -0.20308521 0.90358144
0.037834954 -0.20024478 0.90193701
0.037909277 -0.19816248 0.90370882
0.037811734 -0.19518329 0.90138352
0.037834425 -0.19282964 0.90192443
0.037747029 -0.18991914 0.89984107
0.037893478 -0.18818133 0.90333217
0.037829719 -0.18539421 0.90181226
0.037715599 -0.18237191 0.89909178
0.037034858 -0.17666164 0.88286376
0.036569718 -0.17205468 0.87177545
0.036174271 -0.16783179 0.8623485
0.0361702 -0.1654508 0.86225146
0.036106661 -0.16280219 0.86073673
0.036084682 -0.16034657 0.8602128
0.035907786 -0.15721555 0.85599583
0.035789862 -0.15436196 0.85318464
0.035673074 -0.15152864 0.85040063
0.035722278 -0.14940478 0.85157359
0.035708353 -0.14701459 0.85124159
0.035841364 -0.14522158 0.85441238
0.035791598 -0.14268255 0.85322601
0.035812266 -0.14042623 0.85371876
0.035493176 -0.13685711 0.84611201
0.035372723 -0.13408263 0.84324056
0.035131741 -0.13087489 0.83749586
0.035182551 -0.12876657 0.83870709
0.035111919 -0.12621507 0.83702338
0.03518571 -0.12418251 0.83878243
0.03506048 -0.12145089 0.83579713
0.034956235 -0.11880695 0.83331203
0.034758002 -0.11586334 0.82858646
0.034754027 -0.11358046 0.82849163
0.034657452 -0.11100154 0.82618946
0.034753881 -0.10904077 0.82848823
0.034643937 -0.10643337 0.82586724
0.034761116 -0.10452329 0.82866067
0.034687381 -0.10203631 0.82690293
0.03483424 -0.10019345 0.8304038
0.034741584 -0.097658142 0.8281951
0.034846451 -0.095677264 0.83069497
0.034752652 -0.093150191 0.82845891
0.03485832 -0.091156982 0.83097786
0.034814771 -0.088769518 0.82993978
0.034866784 -0.086625136 0.83117962
0.034775499 -0.084127329 0.82900357
0.034824308 -0.081971198 0.83016711
0.034735922 -0.0794947 0.82806003
0.03474535 -0.077247232 0.82828486
0.034561425 -0.07458128 0.82390034
0.034619965 -0.072446734 0.82529581
0.034450524 -0.069842353 0.82125652
0.034550782 -0.067789264 0.82364655
0.034387499 -0.065223217 0.81975412
0.03446256 -0.063115001 0.82154351
0.034263503 -0.060512859 0.81679821
0.03425473 -0.058260344 0.81658906
0.034014635 -0.055630662 0.81086552
0.034067173 -0.053491812 0.81211793
0.033941202 -0.051077481 0.80911499
0.034023851 -0.048979923 0.81108522
0.033845562 -0.046512969 0.80683506
0.033846159 -0.044303451 0.80684924
0.033624042 -0.041816879 0.80155426
0.033615142 -0.039610568 0.80134213
0.03344446 -0.037225343 0.79727328
0.033531751 -0.035132702 0.7993542
0.033393569 -0.032807149 0.79606009
0.033410553 -0.030641949 0.79646498
0.033185586 -0.028268429 0.79110205
0.033245854 -0.026148636 0.79253876
0.03316661 -0.023920355 0.79064971
0.033337306 -0.021866363 0.79471886
0.033254586 -0.019640403 0.7927469
0.033353329 -0.017520575 0.79510081
0.033158258 -0.015252694 0.79045057
0.033281703 -0.013136007 0.79339331
0.033193614 -0.01093352 0.79129338
0.033343557 -0.0088054007 0.79486787
0.033108905 -0.0065812469 0.78927404
0.033146095 -0.0044240244 0.79016066
0.033002354 -0.0022496111 0.78673398
0.033186451 -9.4909803e-05 0.79112267
0.033110868 0.0020676209 0.78932089
0.033291724 0.0042530401 0.79363227
0.033189658 0.060593955 0.79119909
0.032944813 0.062298413 0.7853623
0.032560911 0.063698865 0.77621061
0.032406792 0.065513693 0.77253658
0.032145284 0.067084283 0.76630253
0.03208226 0.069047898 0.76480013
0.031842988 0.070612445 0.75909621
0.031823095 0.072646551 0.75862199
0.031683706 0.07439746 0.75529909
0.03177771 0.076693445 0.75754005
0.031675112 0.07851439 0.75509423
0.031724658 0.080708988 0.75627536
0.031624537 0.082519524 0.75388861
0.031780254 0.085001267 0.75760072
0.03178174 0.087080754 0.75763613
0.031916551 0.089534447 0.76084983
0.031871352 0.091489024 0.75977242
0.031973809 0.093871184 0.76221478
0.031962141 0.095924236 0.76193672
0.032047939 0.098274618 0.76398194
0.032016959 0.1002705 0.76324344
0.032045733 0.10245338 0.76392943
0.031937834 0.10419412 0.76135725
0.031908497 0.1061822 0.76065791
0.031742506 0.10770278 0.75670081
0.031742785 0.10977671 0.75670755
0.031532116 0.11110736 0.75168544
0.031553876 0.11324467 0.75220418
0.031464934 0.11498029 0.75008392
0.031543817 0.11732851 0.75196433
0.031417698 0.11891115 0.74895787
0.031466935 0.12115248 0.75013161
0.031353436 0.12276302 0.74742591
0.031424891 0.12509501 0.7491293
0.031385228 0.12698674 0.74818379
0.031509597 0.1295477 0.75114864
0.031483758 0.13149752 0.75053263
0.031483114 0.13355084 0.75051725
0.031427942 0.13536921 0.74920201
0.0314878 0.13768336 0.75062901
0.031449389 0.13956921 0.7497133
0.031513225 0.14191048 0.75123507
0.031403799 0.14346856 0.74862647
0.031456321 0.14576277 0.74987859
0.031321868 0.14718522 0.74667335
0.031375844 0.14948787 0.74796009
0.031230742 0.15083607 0.74450105
0.031304665 0.15323745 0.74626327
0.031269934 0.15510954 0.7454353
0.031333353 0.15747036 0.74694717
0.031196183 0.15881826 0.7436772
0.031159291 0.1606653 0.74279773
0.031037232 0.16206284 0.73988801
0.031048281 0.16414815 0.74015141
0.030904727 0.16540745 0.73672926
0.030921053 0.16751413 0.73711848
0.030918611 0.16952005 0.73706025
0.031073539 0.17239875 0.74075353
0.031110629 0.17463621 0.74163771
0.031084105 0.17651729 0.74100542
0.031006528 0.17810164 0.73915607
0.03100759 0.1801327 0.7391814
0.031006133 0.1821491 0.73914665
0.031060375 0.18449615 0.74043971
0.031004699 0.18619023 0.7391125
0.03102817 0.18835747 0.73967201
0.030875893 0.18944943 0.7360419
0.03083797 0.19123062 0.73513788
0.030711384 0.19245125 0.73212022
0.030825201 0.19517753 0.73483348
0.03090407 0.19769509 0.73671359
0.030837778 0.1992849 0.73513329
0.030706579 0.20044233 0.73200566
0.030580278 0.20161498 0.72899485
0.030581417 0.2036196 0.72902197
0.030555388 0.20544171 0.72840148
0.030583672 0.20762916 0.72907573
0.030446712 0.20868768 0.72581077
0.030368898 0.21013758 0.72395581
0.030178094 0.2107881 0.71940726
0.030196559 0.21288906 0.71984744
0.030082673 0.21405071 0.71713257
0.030147092 0.21647784 0.71866822
0.030078871 0.21795227 0.71704191
0.030232973 0.22104329 0.72071552
0.03010761 0.2220929 0.71772701
0.030045759 0.22359879 0.71625257
0.029884698 0.22435181 0.71241307
0.02994376 0.2267507 0.71382105
0.029789705 0.22752953 0.71014857
0.029726952 0.22899155 0.70865262
0.029651759 0.23034875 0.70686013
0.029740276 0.23297858 0.70897025
0.029640481 0.23413248 0.70659125
0.02965169 0.23615743 0.70685846
0.029548759 0.23726736 0.70440471
0.029657986 0.24008124 0.70700854
0.029579448 0.24137717 0.7051363
0.02965242 0.24390911 0.70687586
0.029606799 0.24546732 0.70578831
0.029671885 0.24794467 0.70733988
0.029570244 0.24902643 0.70491689
0.029596997 0.25118458 0.70555466
0.02950421 0.2523239 0.70334274
0.029515721 0.25434986 0.70361716
0.029377853 0.25508031 0.70033056
0.041348677 -0.26372543 0.92527443
0.041360039 -0.26126245 0.92552865
0.041163333 -0.25749651 0.9211269
0.041216299 -0.25530118 0.92231214
0.041046675 -0.25173426 0.9185164
0.041014966 -0.24902548 0.9178068
0.040795408 -0.24519159 0.91289371
0.040774815 -0.24256825 0.91243291
0.040579408 -0.23891819 0.90806019
0.040485874 -0.23588562 0.90596712
0.040498648 -0.23347741 0.90625298
0.040356483 -0.23018388 0.9030717
0.040369712 -0.22778459 0.9033677
0.040260158 -0.22469841 0.90091622
0.040316805 -0.22254308 0.90218383
0.040239606 -0.21965018 0.90045631
0.040386815 -0.21797796 0.90375048
0.040361438 -0.21536672 0.90318257
0.040512934 -0.21369159 0.9065727
0.040539797 -0.21134812 0.90717381
0.040666692 -0.20951672 0.91001338
0.040516466 -0.20625903 0.90665174
0.040525842 -0.20382243 0.90686154
0.040371943 -0.20057352 0.90341765
0.040412527 -0.19829777 0.90432578
0.040323935 -0.19539115 0.90234339
0.040382605 -0.1931999 0.90365624
0.040359288 -0.19061425 0.90313452
0.040455472 -0.18858853 0.90528685
0.040389899 -0.18580686 0.9038195
0.040209178 -0.18251057 0.89977539
0.039653823 -0.17755894 0.887348
0.039097179 -0.17266971 0.87489176
0.038614217 -0.16816963 0.86408436
0.038535111 -0.16546284 0.86231422
0.038457867 -0.16277362 0.86058569
0.038381122 -0.16009596 0.85886836
0.038188994 -0.1569535 0.85456902
0.038112629 -0.15430327 0.85286015
0.038033336 -0.15165073 0.85108578
0.038088344 -0.14953516 0.85231674
0.038017549 -0.14692667 0.85073251
0.038186613 -0.14523914 0.85451573
0.038107488 -0.14260213 0.85274512
0.038060319 -0.14009246 0.85168964
0.037564855 -0.13596594 0.8406024
0.037467565 -0.13331696 0.83842534
0.037285585 -0.13038377 0.83435309
0.037396509 -0.1284792 0.83683532
0.037291843 -0.12583354 0.83449316
0.037308995 -0.1236043 0.83487695
0.037285972 -0.12124231 0.83436173
0.037270032 -0.11890576 0.83400506
0.037115175 -0.11613648 0.83053982
0.037074119 -0.1137353 0.82962108
0.036908131 -0.11096355 0.82590669
0.036978364 -0.10890785 0.82747829
0.036873665 -0.10633906 0.82513541
0.036938868 -0.10426267 0.82659447
0.036876701 -0.10182659 0.82520336
0.036991768 -0.099876665 0.82777828
0.036958504 -0.097521223 0.82703394
0.037092842 -0.095601827 0.83004004
0.036966 -0.093008824 0.8272016
0.0370919 -0.091051787 0.83001894
0.036998607 -0.088554688 0.82793128
0.037130471 -0.086594127 0.83088207
0.037021901 -0.084071413 0.82845253
0.037064482 -0.081895992 0.82940543
0.036883004 -0.079234004 0.82534444
0.036909532 -0.077028364 0.82593805
0.036765374 -0.074473731 0.82271218
0.036884297 -0.072453536 0.82537329
0.036768503 -0.069972105 0.82278222
0.036899589 -0.067959554 0.82571554
0.036693726 -0.065331005 0.82110888
0.036675315 -0.063049957 0.82069689
0.03643509 -0.060403436 0.81532127
0.036499064 -0.05827203 0.81675285
0.036317904 -0.055756446 0.81269896
0.036384035 -0.053627558 0.81417882
0.036159132 -0.051079441 0.80914605
0.036220066 -0.048945162 0.81050962
0.035993181 -0.046432111 0.8054325
0.036058787 -0.044306275 0.80690062
0.035748295 -0.041733325 0.79995263
0.0358015 -0.039600734 0.80114317
0.035566684 -0.037160695 0.79588866
0.035659015 -0.035071198 0.7979548
0.035555281 -0.032789569 0.79563349
0.035618957 -0.030664776 0.79705834
0.035434663 -0.028333902 0.79293436
0.035444278 -0.026168788 0.79314953
0.035358518 -0.023937924 0.79123044
0.035489 -0.021850718 0.79415029
0.035404064 -0.019628083 0.79224962
0.035516176 -0.017513029 0.79475844
0.035375901 -0.015275247 0.79161936
0.035456333 -0.013136437 0.7934193
0.035276152 -0.010907183 0.78938729
0.035400875 -0.0087756058 0.79217827
0.035214685 -0.0065707215 0.78801179
0.035294924 -0.0044220467 0.78980738
0.03510217 -0.0022460655 0.78549403
0.03521245 -9.4530602e-05 0.78796184
0.03514573 0.00206015 0.7864688
0.035375275 0.0042421781 0.79160541
0.035356067 0.0064072693 0.79117554
0.035508554 0.058676742 0.79458785
0.035345953 0.060574818 0.79094923
0.034954112 0.062046044 0.78218085
0.034538843 0.063426219 0.77288824
0.034360521 0.06520512 0.76889789
0.03418662 0.066970825 0.76500648
0.034129735 0.068951599 0.76373351
0.03393485 0.070638143 0.75937247
0.033872943 0.072585769 0.7579872
0.033790257 0.074479975 0.75613683
0.033800162 0.076573826 0.7563585
0.033767749 0.078570426 0.75563318
0.03372648 0.080541901 0.75470972
0.033705447 0.082557887 0.75423908
0.033778019 0.084806301 0.75586301
0.033821765 0.08698947 0.75684196
0.033931047 0.089350574 0.75928736
0.033946984 0.091473557 0.75964397
0.034018926 0.093752846 0.76125389
0.034009725 0.095812351 0.76104802
0.034039214 0.097982094 0.7617079
0.033975966 0.099882834 0.76029253
0.033978708 0.10197385 0.76035392
0.033910923 0.10384922 0.75883704
0.033899128 0.10589118 0.75857311
0.033763353 0.10753682 0.75553483
0.033778824 0.10965682 0.75588107
0.033632744 0.11124434 0.75261211
0.033707421 0.11355767 0.75428325
0.033639193 0.11538996 0.75275642
0.033676539 0.1175825 0.75359213
0.033550262 0.11919829 0.7507664
0.033572286 0.1213346 0.75125927
0.03346967 0.12301549 0.748963
0.03348868 0.12513827 0.74938834
0.033450276 0.12704533 0.74852896
0.03356304 0.1295311 0.75105238
0.033556037 0.13156112 0.75089562
0.033531189 0.13351923 0.75033963
0.033483896 0.13538355 0.74928135
0.033503987 0.13751863 0.74973094
0.033472318 0.13944055 0.74902225
0.033524882 0.14171466 0.75019848
0.033456124 0.14347495 0.74865985
0.033513289 0.14577453 0.74993908
0.033371896 0.14720526 0.74677503
0.033352334 0.14916353 0.74633729
0.033214439 0.15058292 0.74325156
0.033306755 0.15304323 0.7453174
0.033309579 0.15509816 0.74538058
0.033384766 0.15749478 0.74706304
0.033309247 0.15918045 0.74537319
0.03326479 0.16100718 0.74437827
0.033129521 0.16238335 0.74135131
0.033088315 0.16420978 0.74042928
0.032973424 0.16566093 0.7378583
0.032974433 0.1676874 0.73788089
0.032898244 0.16931666 0.73617595
0.033009421 0.1719124 0.73866379
0.03305231 0.17416194 0.73962361
0.033107828 0.17648406 0.74086595
0.033038393 0.17813925 0.73931217
0.033048928 0.180222 0.73954785
0.033017196 0.182073 0.73883784
0.033089265 0.18449883 0.7404505
0.03299623 0.18600284 0.73836863
0.033027343 0.18820287 0.73906487
0.032977197 0.18993868 0.73794276
0.032956626 0.1918405 0.73748243
0.032866184 0.1933288 0.73545855
0.032878067 0.19541417 0.73572445
0.032876279 0.19741893 0.73568445
0.032830626 0.19915737 0.73466289
0.032722492 0.20050736 0.73224312
0.032605253 0.20178775 0.72961962
0.032551788 0.20345235 0.72842318
0.032489341 0.20505372 0.72702581
0.032528751 0.20729654 0.72790772
0.032428261 0.20864403 0.72565895
0.032354087 0.21015017 0.72399914
0.032131486 0.21067403 0.71901798
0.032180019 0.21296494 0.72010398
0.032124013 0.21456355 0.71885073
0.032232456 0.21726379 0.72127742
0.032121766 0.21848679 0.71880043
0.032223608 0.2211549 0.72107941
0.032039817 0.22185761 0.71696663
0.03202679 0.22373073 0.71667516
0.031894192 0.22475961 0.71370798
0.031960212 0.22718406 0.71518528
0.031809729 0.22806436 0.71181786
0.031751148 0.22959076 0.71050698
0.031665117 0.23090982 0.70858186
0.03171894 0.23324673 0.70978624
0.031599712 0.2343071 0.70711821
0.031614237 0.23635283 0.7074433
0.031469036 0.23719642 0.70419407
0.031540524 0.23966874 0.7057938
0.031513572 0.24139577 0.70519066
0.031608365 0.24405956 0.70731193
0.031590495 0.24585815 0.70691204
0.03158465 0.24774884 0.70678121
0.031541795 0.24934626 0.70582223
0.031530052 0.25118628 0.70555949
0.031472273 0.25265527 0.70426649
0.031486128 0.25469664 0.70457649
0.03144009 0.2562516 0.70354635
0.043824457 -0.26337099 0.9240309
0.043874566 -0.2611379 0.92508745
0.043691438 -0.25752428 0.9212262
0.043707345 -0.25509343 0.9215616
0.043492265 -0.25132596 0.9170267
0.043419898 -0.24839982 0.91550088
0.043157414 -0.24440536 0.90996641
0.043155283 -0.24190059 0.90992147
0.043009769 -0.23860066 0.90685338
0.04309975 -0.23661035 0.90875059
0.042920835 -0.23314899 0.90497822
0.042772632 -0.22987334 0.90185338
0.042809047 -0.22759637 0.90262121
0.042722918 -0.22467072 0.90080518
0.042775229 -0.22247508 0.90190816
0.042782076 -0.22003953 0.90205246
0.042924222 -0.2182913 0.90504962
0.042858362 -0.21548082 0.90366101
0.042998768 -0.21370308 0.9066214
0.043042686 -0.21143515 0.90754741
0.043252271 -0.20996639 0.91196644
0.043158587 -0.20701872 0.90999115
0.043232266 -0.20487501 0.91154468
0.043082356 -0.20167609 0.90838385
0.043067683 -0.19911978 0.9080745
0.042896133 -0.1958489 0.90445733
0.04290536 -0.19341278 0.90465194
0.042849913 -0.19068778 0.90348285
0.043024246 -0.18897845 0.90715861
0.042926226 -0.18606843 0.90509188
0.042723078 -0.18272014 0.90080851
0.042149276 -0.17783149 0.88871002
0.04160646 -0.17313807 0.8772648
0.041097179 -0.16864496 0.86652672
0.040976267 -0.16578196 0.86397737
0.040792312 -0.16268151 0.86009866
0.040741045 -0.16012381 0.85901773
0.040524557 -0.1569322 0.85445309
0.040518261 -0.15456745 0.85432035
0.040360209 -0.15163328 0.85098785
0.040427148 -0.14954965 0.85239929
0.040308435 -0.14678223 0.84989619
0.040437877 -0.14491786 0.85262549
0.040325172 -0.14218473 0.85024911
0.040261015 -0.139633 0.84889638
0.039845791 -0.13589138 0.84014142
0.039734751 -0.13321757 0.8378002
0.039582387 -0.13042042 0.83458757
0.039616525 -0.12824461 0.83530742
0.039459787 -0.12545799 0.83200264
0.039413098 -0.12303301 0.83101821
0.039394353 -0.12069903 0.83062297
0.039418437 -0.11849596 0.83113074
0.039387025 -0.1161265 0.83046842
0.039365645 -0.11378966 0.83001763
0.039205112 -0.1110611 0.8266328
0.039213173 -0.10881895 0.82680279
0.039145306 -0.10636953 0.8253718
0.03922319 -0.10431559 0.82701403
0.039176214 -0.1019278 0.82602358
0.039270483 -0.099904761 0.82801116
0.039222635 -0.097517498 0.82700235
0.03928471 -0.095402703 0.82831115
0.039133981 -0.092776239 0.82513309
0.039229538 -0.090736829 0.82714784
0.039179731 -0.088358574 0.82609773
0.039368317 -0.086509906 0.83007395
0.039298654 -0.084086902 0.82860518
0.039342262 -0.081907757 0.82952464
0.039145514 -0.079237059 0.82537627
0.039181184 -0.077046111 0.8261283
0.039093744 -0.074616075 0.82428467
0.03922667 -0.072604008 0.8270874
0.039156757 -0.070212871 0.82561332
0.039255399 -0.06812232 0.82769316
0.038985509 -0.065402105 0.82200253
0.038976509 -0.063135691 0.82181281
0.038768124 -0.060558852 0.81741905
0.038899366 -0.05851699 0.82018626
0.038582221 -0.055811353 0.81349927
0.038602497 -0.053610958 0.81392682
0.038315088 -0.050998688 0.80786681
0.038404681 -0.048899647 0.80975592
0.038143963 -0.046364445 0.8042587
0.038207762 -0.044235069 0.80560386
0.037911516 -0.041702282 0.79935759
0.03804943 -0.039656211 0.80226547
0.037789188 -0.037202235 0.79677832
0.037891511 -0.035114314 0.79893583
0.037726745 -0.032782491 0.79546177
0.037852634 -0.030705471 0.79811609
0.037641417 -0.028359925 0.79366261
0.037651855 -0.026192976 0.79388267
0.037517793 -0.023932649 0.79105604
0.03766029 -0.021848248 0.79406053
0.03755749 -0.019619249 0.79189301
0.037678983 -0.017506337 0.79445469
0.037567608 -0.015284645 0.79210639
0.037610557 -0.013129693 0.79301196
0.037457518 -0.010912681 0.78978515
0.037486959 -0.0087559717 0.79040593
0.037354041 -0.0065673157 0.78760332
0.037473924 -0.0044238591 0.79013109
0.037306543 -0.0022492332 0.78660184
0.037327651 -9.4420837e-05 0.78704691
0.03718992 0.0020540571 0.78414285
0.037436016 0.004229994 0.78933179
0.03752004 0.0064066853 0.79110342
0.037671305 0.0086084493 0.79429281
0.037602574 0.056375965 0.79284358
0.037563451 0.05848702 0.79201871
0.037341092 0.060297664 0.78733033
0.03692219 0.061753895 0.77849787
0.036503576 0.06316223 0.76967144
0.036293454 0.064895011 0.76524109
0.036134306 0.066697598 0.76188546
0.036131516 0.068779446 0.76182663
0.036030732 0.070668764 0.75970161
0.036008324 0.072704703 0.75922918
0.035895772 0.074550815 0.75685596
0.035862129 0.076552384 0.75614667
0.035807963 0.078505069 0.75500458
0.035745595 0.080433026 0.75368953
0.035684071 0.082355738 0.75239229
0.035770122 0.084620468 0.75420672
0.035805527 0.086772382 0.75495321
0.035934385 0.089160271 0.75767016
0.035815254 0.090933412 0.75515831
0.03593082 0.093302235 0.757595
0.035928331 0.095371023 0.75754249
0.036083937 0.097868323 0.76082343
0.035974372 0.099649079 0.75851327
0.036006439 0.10181767 0.75918937
0.035984103 0.10383299 0.75871843
0.036086664 0.10621334 0.76088095
0.036010135 0.10806807 0.75926733
0.035972189 0.110032 0.75846726
0.035744734 0.11140091 0.75367141
0.035752736 0.11349095 0.75384009
0.035682231 0.11532819 0.75235349
0.03576551 0.11766321 0.75410944
0.03567775 0.11943527 0.75225902
0.035772752 0.12181959 0.75426215
0.035645239 0.12344427 0.75157356
0.035643782 0.12549804 0.75154287
0.035492957 0.12701711 0.74836272
0.035604063 0.12947124 0.75070536
0.035576511 0.13142599 0.75012445
0.035657335 0.13378419 0.75182861
0.035568707 0.13550614 0.74995989
0.035567585 0.13755628 0.74993622
0.035463262 0.13920122 0.74773663
0.035594817 0.1417736 0.75051039
0.035487253 0.14339496 0.74824244
0.035539426 0.14565857 0.7493425
0.035371497 0.14701341 0.74580175
0.035382286 0.14910196 0.7460292
0.03521673 0.15043846 0.74253851
0.035314884 0.15289758 0.7446081
0.035274897 0.15476197 0.74376494
0.03537979 0.15726574 0.74597657
0.035277877 0.15885042 0.74382776
0.035295907 0.16097035 0.74420798
0.035142526 0.16230069 0.74097395
0.035098094 0.1641228 0.74003708
0.035007682 0.16572212 0.73813081
0.035017855 0.16779293 0.73834527
0.03490226 0.16925503 0.73590797
0.034968436 0.17159575 0.73730326
0.034949534 0.17352173 0.73690474
0.035052978 0.17606002 0.73908585
0.034937825 0.17749968 0.73665786
0.035006493 0.17987056 0.73810571
0.034985974 0.18178597 0.7376731
0.035145324 0.18464397 0.74103296
0.035079069 0.18632209 0.73963594
0.035200357 0.18899953 0.74219334
0.035115339 0.19057132 0.74040067
0.03511982 0.19262421 0.7404952
0.034868777 0.19326134 0.73520195
0.03476274 0.19468157 0.73296624
0.034797035 0.19688354 0.73368931
0.03473613 0.19854532 0.73240513
0.0346861 0.20026289 0.7313503
0.034618996 0.20187509 0.72993541
0.034568164 0.20357536 0.7288636
0.034478702 0.20504005 0.72697735
0.034471884 0.20699063 0.72683358
0.034406275 0.20858401 0.72545022
0.034400903 0.21053848 0.72533697
0.034184985 0.21119159 0.72078437
0.034212012 0.21333466 0.72135419
0.034071956 0.21442936 0.71840113
0.034172375 0.21703517 0.72051847
0.034077551 0.2184013 0.71851915
0.034184486 0.22106117 0.72077382
0.033994671 0.22179726 0.7167716
0.034008719 0.2238533 0.71706784
0.033868145 0.22488426 0.71410382
0.033937495 0.22730502 0.7155661
0.033806562 0.22838077 0.71280539
0.033783421 0.23017579 0.71231747
0.033629134 0.23106703 0.7090643
0.033649988 0.233154 0.70950407
0.033486206 0.23395339 0.70605075
0.033534631 0.23622869 0.70707172
0.033398792 0.23720096 0.7042076
0.033470828 0.2396459 0.7057265
0.033391602 0.24100737 0.70405602
0.033451494 0.24337183 0.70531881
0.033453371 0.24531782 0.70535845
0.033525139 0.24778053 0.70687163
0.033492755 0.24947575 0.7061888
0.033525366 0.25165513 0.7068764
0.03346131 0.25310707 0.70552582
0.033534594 0.25559837 0.70707095
0.033487096 0.25717062 0.70606953
0.046340484 -0.26328397 0.92372561
0.046391182 -0.26103872 0.92473614
0.046252362 -0.25773191 0.921969
0.046179283 -0.25480294 0.92051226
0.04599921 -0.2512975 0.91692281
0.045851517 -0.24798685 0.91397882
0.045625564 -0.2442733 0.90947473
0.045568157 -0.24147762 0.90833044
0.045422118 -0.23822336 0.90541935
0.045535196 -0.23632988 0.90767342
0.045375481 -0.23302315 0.90448976
0.045200061 -0.22965404 0.90099299
0.04527827 -0.22757891 0.90255195
0.04522419 -0.22483753 0.901474
0.045295969 -0.22272092 0.90290481
0.045332789 -0.22042648 0.90363878
0.045475136 -0.21863538 0.9064762
0.045496952 -0.2162558 0.90691108
0.045629203 -0.21439275 0.90954733
0.045630086 -0.21190518 0.90956491
0.045871757 -0.21052258 0.91438222
0.045774657 -0.20757735 0.91244668
0.045921918 -0.20573749 0.91538209
0.045673046 -0.20212843 0.91042125
0.04568518 -0.19968741 0.91066313
0.045519326 -0.1964768 0.9073571
0.045597028 -0.19432227 0.90890592
0.045556355 -0.19166124 0.90809518
0.045638982 -0.18951666 0.90974224
0.04547755 -0.18636292 0.90652436
0.045226149 -0.18286304 0.90151304
0.044631146 -0.1780201 0.88965261
0.044038739 -0.17325234 0.87784386
0.043587659 -0.16909757 0.86885226
0.043498449 -0.16637616 0.86707401
0.043321311 -0.16333298 0.86354303
0.043226998 -0.1606169 0.86166304
0.04297572 -0.15733647 0.85665423
0.042999413 -0.15507516 0.85712653
0.042818114 -0.15208314 0.85351259
0.042878501 -0.14995615 0.8547163
0.042652979 -0.14683831 0.85022092
0.042719409 -0.14473423 0.8515451
0.042532872 -0.14177965 0.84782672
0.042397432 -0.13901299 0.84512699
0.042048652 -0.13557324 0.83817458
0.041966058 -0.1330153 0.83652818
0.041881941 -0.13046165 0.83485144
0.041862082 -0.12811384 0.83445561
0.041667368 -0.12524261 0.83057427
0.041594733 -0.12275292 0.82912636
0.041581154 -0.12044222 0.82885569
0.041633617 -0.1183207 0.82990152
0.041631375 -0.11604097 0.82985681
0.041648034 -0.11381314 0.83018887
0.041509062 -0.11116669 0.82741868
0.041487187 -0.10884261 0.82698262
0.041403808 -0.10636292 0.8253206
0.041508779 -0.10436592 0.82741302
0.041498143 -0.1020731 0.82720107
0.041575015 -0.099991895 0.82873333
0.041514661 -0.097579755 0.82753032
0.041555986 -0.095407635 0.828354
0.041439038 -0.092876285 0.82602286
0.041497495 -0.090741254 0.82718813
0.041440621 -0.088353939 0.82605439
0.041658401 -0.086543418 0.83039552
0.041632872 -0.084216945 0.82988662
0.041706547 -0.082088515 0.83135527
0.041482024 -0.079381391 0.82687974
0.041448452 -0.077053778 0.8262105
0.041390482 -0.074685797 0.82505494
0.041568406 -0.072736926 0.8286016
0.04155954 -0.070451975 0.82842487
0.041619234 -0.068280473 0.82961476
0.041294742 -0.065493129 0.82314652
0.04123063 -0.063139968 0.82186854
0.040880706 -0.060371738 0.81489336
0.040844083 -0.058087278 0.81416333
0.04053263 -0.055430982 0.80795503
0.040663134 -0.053388961 0.81055641
0.040469494 -0.050924812 0.80669653
0.040591631 -0.048861917 0.80913109
0.04028552 -0.046293572 0.8030293
0.04037375 -0.044190269 0.80478799
0.040125743 -0.041727677 0.79984438
0.040253438 -0.039662354 0.80238974
0.03999453 -0.037223268 0.79722881
0.040066753 -0.035102565 0.7986685
0.03998512 -0.032847587 0.7970413
0.040070582 -0.030729659 0.7987448
0.03983235 -0.028371839 0.79399604
0.039770883 -0.02615629 0.79277074
0.039656393 -0.023915481 0.7904886
0.039793156 -0.021824976 0.79321474
0.039712295 -0.019612061 0.79160291
0.039829362 -0.017494917 0.79393649
0.03979994 -0.015308642 0.79334998
0.039852221 -0.013152543 0.79439211
0.03969096 -0.010931921 0.79117763
0.039695673 -0.0087655615 0.79127157
0.039526969 -0.0065698624 0.78790873
0.039574731 -0.0044167466 0.7888608
0.039411537 -0.0022463908 0.78560776
0.039426286 -9.4283459e-05 0.78590178
0.039334532 0.0020538736 0.78407282
0.03949859 0.004219336 0.78734303
0.03952213 0.0063800323 0.78781229
0.039675858 0.0085714255 0.79087663
0.039676197 0.010738093 0.79088336
0.039804537 0.054244891 0.79344165
0.03962294 0.056161094 0.78982174
0.039581943 0.058264442 0.78900456
0.03927727 0.059960771 0.78293139
0.03897823 0.061632738 0.77697051
0.038631395 0.063193858 0.77005684
0.038457006 0.06500861 0.7665807
0.038279891 0.066799566 0.7630502
0.038248323 0.06883309 0.76242089
0.038110524 0.070666209 0.75967413
0.038045749 0.072623663 0.75838292
0.037979204 0.074570566 0.75705647
0.037965793 0.07661742 0.75678909
0.037896641 0.078547291 0.75541067
0.037795607 0.080401778 0.75339669
0.037738334 0.082340717 0.75225508
0.037779015 0.084492475 0.75306594
0.037742812 0.086472526 0.75234431
0.037812635 0.088697329 0.75373614
0.037703265 0.09049964 0.75155604
0.03783989 0.092893898 0.75427943
0.037772615 0.09479139 0.75293839
0.03795062 0.097310461 0.75648665
0.037829954 0.099066846 0.75408137
0.037887014 0.10128517 0.7552188
0.037889313 0.10336032 0.75526458
0.037969999 0.10565385 0.75687295
0.037973102 0.10773608 0.75693482
0.038009718 0.10991557 0.75766468
0.037926745 0.11174669 0.75601077
0.037882797 0.11368586 0.7551347
0.037742473 0.11532575 0.75233757
0.037790623 0.1175365 0.75329733
0.03781689 0.11968327 0.75382096
0.037876025 0.12193872 0.75499976
0.037732158 0.12353598 0.75213194
0.037685461 0.12544098 0.75120115
0.037606291 0.12723102 0.749623
0.037685405 0.12955657 0.75120002
0.037632544 0.13142982 0.75014627
0.037680972 0.13365662 0.75111169
0.037617829 0.13548683 0.74985301
0.037589647 0.13743798 0.74929124
0.037514821 0.13921297 0.74779969
0.037648141 0.14176355 0.75045723
0.037582457 0.14356849 0.74914789
0.037559673 0.14553246 0.74869376
0.03736864 0.14683285 0.7448858
0.037345048 0.14877945 0.74441552
0.03725506 0.15045531 0.74262172
0.037371822 0.15296763 0.74494922
0.037347235 0.15490642 0.74445915
0.037386235 0.15710972 0.74523652
0.037292477 0.15875214 0.74336761
0.037307795 0.16085462 0.74367297
0.037225783 0.16253379 0.74203813
0.03721543 0.16452083 0.74183178
0.037100911 0.16604052 0.73954904
0.037113119 0.16812178 0.73979235
0.036923837 0.16928063 0.73601931
0.03696917 0.17150725 0.73692298
0.03691173 0.1732564 0.73577797
0.037032966 0.17584772 0.73819464
0.036947053 0.17745733 0.73648208
0.036991797 0.17969225 0.73737401
0.036974769 0.18162861 0.73703456
0.037173003 0.18463229 0.74098605
0.037131246 0.18645252 0.74015373
0.037178427 0.18871963 0.74109417
0.037086956 0.19028053 0.73927087
0.037114438 0.19244821 0.73981863
0.036829598 0.19298242 0.73414087
0.036771961 0.19468839 0.73299193
0.036800697 0.19685011 0.73356473
0.036739301 0.19852793 0.73234093
0.036696739 0.20030183 0.73149252
0.036651962 0.20205888 0.73059994
0.036622915 0.20389861 0.73002094
0.036551073 0.20549457 0.72858888
0.036508273 0.20724754 0.7277357
0.036452025 0.20891878 0.72661453
0.036439057 0.21083428 0.72635603
0.03628736 0.2119381 0.72333217
0.036288649 0.21392724 0.72335786
0.036164127 0.21516798 0.72087574
0.036205109 0.21738885 0.72169262
0.036068868 0.21854042 0.71897686
0.036098398 0.22069059 0.71956551
0.035973758 0.221893 0.71708101
0.035992913 0.22397661 0.71746284
0.035860073 0.22510818 0.71481484
0.03587193 0.22714147 0.71505123
0.035793766 0.22860113 0.71349317
0.035805427 0.23063082 0.71372557
0.035641707 0.23152255 0.71046209
0.03560039 0.23319817 0.70963848
0.035471231 0.23428911 0.70706391
0.035527728 0.23660232 0.70819008
0.035450667 0.23802499 0.70665401
0.035417426 0.23973584 0.70599139
0.035333183 0.24109504 0.70431209
0.035355564 0.24317843 0.70475829
0.035419721 0.24555385 0.7060371
0.035492033 0.24799326 0.70747852
0.035462227 0.24972148 0.70688438
0.035463866 0.25166959 0.70691705
0.035374183 0.25296485 0.70512938
0.035377555 0.25492081 0.70519662
0.035352532 0.25667101 0.70469785
0.048946913 -0.26369298 0.92516053
0.048978321 -0.2613261 0.92575413
0.048705317 -0.25734755 0.92059404
0.048586823 -0.25420564 0.91835433
0.048383422 -0.25063616 0.91450977
0.048246287 -0.24742763 0.91191775
0.048047673 -0.24392116 0.90816367
0.04800621 -0.24122494 0.90737998
0.047897067 -0.23819645 0.90531707
0.047959425 -0.23602325 0.90649569
0.047731504 -0.23243007 0.90218771
0.047636677 -0.22950171 0.90039533
0.047778856 -0.22771272 0.90308267
0.047800269 -0.22533971 0.90348744
0.047878467 -0.22322923 0.90496546
0.047920946 -0.22094597 0.90576839
0.048035629 -0.21898748 0.90793604
0.048064899 -0.21663213 0.90848929
0.048246548 -0.21495266 0.91192269
0.048214398 -0.21231292 0.91131502
0.048425999 -0.21073724 0.91531456
0.048360806 -0.20794943 0.91408229
0.048527151 -0.20615201 0.91722643
0.048401024 -0.20311001 0.91484249
0.048433241 -0.20073737 0.91545141
0.048293117 -0.19765604 0.91280293
0.048260175 -0.19502231 0.91218024
0.048214983 -0.19234315 0.91132605
0.048285786 -0.19012541 0.91266435
0.048139341 -0.18705614 0.90989637
0.047834937 -0.18339643 0.90414268
0.047048073 -0.17794353 0.88926995
0.046403125 -0.17310151 0.87707961
0.045897592 -0.16883913 0.86752439
0.045862176 -0.16633412 0.86685497
0.04560503 -0.1630401 0.86199456
0.04555643 -0.16050747 0.86107594
0.045332551 -0.1573714 0.85684437
0.045385774 -0.1552061 0.85785031
0.045246057 -0.15238552 0.85520953
0.045277856 -0.15014812 0.85581052
0.045111582 -0.14726089 0.85266775
0.045110811 -0.14492257 0.85265315
0.044777188 -0.14153224 0.84634727
0.044631582 -0.13876101 0.84359509
0.04428257 -0.135383 0.83699834
0.04427541 -0.13306855 0.83686298
0.044159748 -0.13043436 0.83467686
0.044125296 -0.12804782 0.83402568
0.043843918 -0.12496108 0.82870722
0.043723308 -0.12235335 0.82642752
0.04365427 -0.11989976 0.82512265
0.043749992 -0.11789732 0.82693189
0.043765713 -0.11567353 0.82722908
0.043748137 -0.11336183 0.82689685
0.043631352 -0.11080001 0.82468945
0.043647047 -0.10857984 0.8249861
0.043635666 -0.10629209 0.82477099
0.04381609 -0.10446282 0.82818127
0.043785367 -0.1021224 0.82760054
0.043888934 -0.10009141 0.82955813
0.043772049 -0.097558349 0.82734883
0.043812387 -0.09537968 0.82811129
0.043713283 -0.092900485 0.8262381
0.043772176 -0.090759143 0.82735121
0.043784663 -0.088517889 0.82758725
0.043934558 -0.086546019 0.83042043
0.043869816 -0.084146939 0.82919675
0.043962851 -0.08204902 0.83095527
0.043869745 -0.079603702 0.82919544
0.043838657 -0.077277347 0.8286078
0.043740768 -0.074839927 0.82675755
0.043886326 -0.072816566 0.82950884
0.043849353 -0.070484728 0.82880998
0.043833047 -0.068188868 0.82850176
0.043450668 -0.065344162 0.82127428
0.043407474 -0.063031599 0.82045788
0.042923253 -0.060105927 0.81130546
0.042802438 -0.057720456 0.80902189
0.042429402 -0.055020444 0.80197108
0.042555422 -0.05298036 0.804353
0.042429291 -0.050626367 0.80196893
0.042590789 -0.048613742 0.80502146
0.042380843 -0.046179652 0.80105323
0.042433899 -0.044040263 0.80205607
0.042267364 -0.041678842 0.79890829
0.042365503 -0.039581954 0.80076325
0.042167094 -0.037213195 0.79701304
0.042287633 -0.035129946 0.79929143
0.042215932 -0.032884467 0.7979362
0.042233277 -0.030711163 0.79826403
0.041996416 -0.028364372 0.79378706
0.041928992 -0.026147775 0.79251266
0.041858483 -0.023936396 0.79117996
0.041872371 -0.021776212 0.79144245
0.041809671 -0.019578725 0.79025733
0.041885898 -0.017445594 0.7916981
0.041933164 -0.015294007 0.79259151
0.042013586 -0.013147898 0.79411155
0.04192492 -0.010949303 0.79243565
0.041904513 -0.0087741837 0.79204994
0.041652367 -0.0065646539 0.78728408
0.041658401 -0.0044085574 0.78739816
0.041514099 -0.0022437111 0.78467065
0.041534875 -9.4182869e-05 0.78506333
0.041376598 0.0020486317 0.78207165
0.041478422 0.004201401 0.78399628
0.04155403 0.0063607022 0.78542536
0.041782122 0.0085590696 0.78973663
0.041857414 0.010741845 0.79115969
0.041868623 0.012912654 0.79137158
0.041821484 0.015063607 0.79048061
0.042007893 0.049933046 0.79400396
0.041734867 0.051769525 0.78884345
0.04187075 0.05410612 0.79141182
0.041654181 0.055983089 0.78731835
0.041618172 0.058089662 0.78663772
0.0412593 0.059725136 0.7798546
0.041016646 0.061497696 0.77526808
0.040649425 0.063051917 0.76832718
0.04045327 0.064842306 0.76461959
0.040321372 0.066718698 0.76212651
0.040306482 0.068781108 0.76184511
0.040198114 0.070677616 0.7597968
0.040034059 0.072462112 0.75669593
0.039901108 0.074287526 0.75418299
0.039963651 0.076473258 0.75536513
0.039870486 0.078359455 0.75360417
0.039824225 0.080330603 0.75272977
0.03968567 0.082106024 0.75011092
0.039791264 0.084384859 0.75210679
0.03969831 0.086243279 0.75034982
0.039754182 0.088423111 0.75140589
0.039683063 0.090319693 0.75006163
0.039772257 0.092582084 0.75174755
0.039674826 0.094409615 0.74990594
0.039799299 0.096766591 0.75225866
0.039720345 0.098631337 0.75076634
0.039804067 0.10090026 0.75234878
0.03975527 0.10283506 0.75142646
0.039825413 0.10507864 0.75275224
0.039791431 0.10704935 0.75210994
0.039854571 0.10928287 0.75330335
0.039863482 0.11137141 0.75347179
0.039925713 0.1136126 0.75464809
0.039795447 0.1153025 0.75218588
0.039797958 0.11737049 0.75223333
0.039762259 0.11932406 0.75155854
0.039847627 0.12164354 0.7531721
0.039719351 0.1233086 0.75074756
0.039647166 0.1251374 0.74938315
0.039504927 0.12673399 0.74669462
0.039550301 0.12892745 0.74755228
0.039490569 0.13077754 0.7464233
0.039636884 0.13331445 0.74918878
0.03958967 0.13520557 0.74829638
0.039612785 0.13733564 0.74873334
0.039511636 0.13903086 0.74682146
0.039684709 0.14169469 0.75009274
0.03963967 0.14358641 0.74924147
0.039648041 0.14566968 0.74939966
0.039451014 0.14698854 0.74567562
0.039457351 0.14905523 0.74579543
0.039387003 0.15082891 0.74446571
0.039489128 0.15326472 0.74639601
0.039452851 0.15516677 0.74571037
0.039421838 0.15708603 0.74512416
0.039282385 0.15856437 0.74248832
0.039294947 0.16064975 0.74272579
0.039194275 0.16226761 0.74082291
0.039230097 0.16444725 0.74150002
0.0391156 0.16599266 0.73933583
0.039221961 0.16847491 0.74134624
0.039024405 0.16964699 0.73761219
0.039070994 0.17187259 0.73849273
0.03887637 0.17302944 0.73481411
0.038980987 0.17551348 0.73679149
0.038816143 0.17678113 0.73367572
0.038870063 0.17903937 0.7346949
0.038817637 0.18080784 0.73370397
0.039015427 0.18374933 0.73744249
0.039070997 0.18603411 0.73849279
0.039201576 0.18868569 0.7409609
0.039022304 0.18984337 0.73757243
0.039026354 0.19188383 0.73764896
0.038812015 0.19283964 0.7335977
0.038746037 0.19451807 0.73235065
0.038786661 0.19673036 0.73311847
0.03868103 0.19819748 0.73112196
0.038652778 0.20005412 0.7305879
0.038684811 0.20222302 0.73119342
0.038665999 0.20412678 0.73083782
0.038565114 0.20559105 0.72893095
0.038518708 0.20733814 0.72805381
0.038397685 0.20867489 0.7257663
0.0383831 0.21058311 0.72549069
0.038211975 0.21162283 0.72225618
0.038219046 0.21364094 0.72238982
0.03803543 0.21458399 0.71891922
0.0380527 0.21665178 0.71924567
0.037983149 0.21822254 0.71793109
0.038092278 0.22082192 0.71999371
0.038022999 0.22238912 0.71868426
0.037971005 0.22405112 0.71770149
0.037777003 0.22486247 0.71403462
0.03770848 0.22640713 0.71273947
0.037605397 0.22773537 0.71079105
0.037662044 0.23002855 0.71186179
0.037521135 0.23111074 0.70919842
0.037517995 0.23303406 0.70913905
0.037341647 0.23387223 0.70580584
0.037448648 0.23648144 0.70782828
0.037377711 0.23796891 0.70648748
0.037395835 0.24002065 0.70683008
0.037260365 0.24108046 0.70426953
0.037316911 0.24337856 0.7053383
0.037360005 0.2455941 0.70615286
0.037502319 0.24847147 0.70884275
0.037404232 0.24975835 0.70698875
0.037414424 0.25176373 0.70718145
0.037235137 0.25248531 0.70379269
0.037242737 0.25446525 0.70393634
0.037142664 0.2557047 0.70204479
0.051506754 -0.26382306 0.92561692
0.051501524 -0.26126084 0.92552292
0.051119547 -0.25680649 0.91865849
0.050897636 -0.25318596 0.91467059
0.050707303 -0.24974282 0.91125017
0.050599262 -0.24671967 0.90930855
0.050501332 -0.24375598 0.90754867
0.050483644 -0.24118531 0.90723085
0.050374027 -0.23818168 0.90526092
0.050292723 -0.23532133 0.90379983
0.050106499 -0.23198323 0.90045327
0.050057419 -0.22929165 0.89957124
0.050256424 -0.22772908 0.90314752
0.05024321 -0.22519571 0.90291005
0.050443511 -0.22361013 0.90650964
0.050486334 -0.2213145 0.90727919
0.050675698 -0.21964984 0.9106822
0.05071152 -0.21730854 0.91132593
0.050932221 -0.21574689 0.91529214
0.050872654 -0.21299009 0.91422164
0.051004395 -0.21103069 0.91658914
0.050976895 -0.20840731 0.91609496
0.051142827 -0.2065679 0.91907686
0.05104981 -0.203679 0.91740525
0.051084694 -0.20130327 0.91803217
0.051031217 -0.19858027 0.91707116
0.051079173 -0.19625223 0.91793293
0.051032305 -0.19355983 0.91709071
0.051017594 -0.19099241 0.91682631
0.050854623 -0.18787871 0.91389763
0.050462272 -0.18394493 0.90684676
0.049432751 -0.17775854 0.88834548
0.048680693 -0.17265759 0.87483037
0.048211627 -0.16862048 0.8664009
0.048202995 -0.16621722 0.86624575
0.047997698 -0.16314636 0.8625564
0.047966875 -0.16068017 0.86200249
0.047703363 -0.15744902 0.85726702
0.047729596 -0.15518586 0.85773844
0.047626201 -0.15250504 0.85588032
0.047691882 -0.15036745 0.85706067
0.047488116 -0.14738715 0.8533988
0.04746848 -0.14498933 0.85304594
0.047118787 -0.14160155 0.8467617
0.046888404 -0.13860087 0.84262156
0.046386149 -0.13483261 0.83359563
0.046422374 -0.13265252 0.83424664
0.04633614 -0.13012496 0.83269691
0.04628098 -0.12769163 0.83170563
0.045965578 -0.12455853 0.82603765
0.045932859 -0.12220858 0.82544965
0.045895766 -0.11985042 0.82478309
0.045957796 -0.11774988 0.82589775
0.045892667 -0.11532371 0.82472736
0.045879148 -0.1130311 0.82448441
0.045775849 -0.11052305 0.82262808
0.045789469 -0.10830171 0.82287282
0.045828737 -0.10613841 0.82357848
0.046005461 -0.10428284 0.82675439
0.04603174 -0.10207625 0.82722658
0.046190083 -0.10015343 0.83007216
0.046148211 -0.097790748 0.82931966
0.046238124 -0.095704965 0.83093548
0.046100032 -0.093149625 0.8284539
0.046204384 -0.091085821 0.83032918
0.046201531 -0.088805683 0.83027792
0.046299424 -0.086714506 0.83203709
0.046158873 -0.084178858 0.82951128
0.046252672 -0.082072884 0.8311969
0.046227314 -0.079752102 0.83074123
0.046193182 -0.07741911 0.83012784
0.046016764 -0.074858025 0.82695746
0.046093445 -0.072713569 0.82833552
0.046003453 -0.070306838 0.82671827
0.045952938 -0.067967363 0.82581049
0.045626193 -0.065237895 0.8199386
0.045518447 -0.06284295 0.81800234
0.044916254 -0.059800323 0.80718046
0.04470256 -0.057315093 0.8033402
0.044360261 -0.05469235 0.79718882
0.044474147 -0.052643284 0.79923546
0.044389814 -0.050358135 0.7977199
0.04453826 -0.048333913 0.80038762
0.044426993 -0.04602601 0.79838806
0.044506904 -0.043917708 0.79982412
0.0444161 -0.041641485 0.79819226
0.044497438 -0.039527126 0.79965401
0.044382241 -0.037239842 0.79758382
0.044533372 -0.035174262 0.80029976
0.044483047 -0.032944601 0.79939538
0.044426192 -0.03071538 0.79837364
0.044221405 -0.028396761 0.79469347
0.044130892 -0.026166059 0.79306686
0.04405551 -0.023952501 0.79171222
0.043958295 -0.021735566 0.78996515
0.04387936 -0.019536341 0.78854662
0.043964922 -0.017410032 0.7900843
0.044025697 -0.015266701 0.79117644
0.044193175 -0.013149134 0.79418617
0.044047892 -0.010937416 0.79157531
0.04409093 -0.0087774936 0.79234874
0.043853648 -0.0065713287 0.78808457
0.043882951 -0.0044153491 0.78861117
0.043765716 -0.0022489545 0.78650439
0.043737184 -9.4294235e-05 0.78599161
0.043518592 0.00204861 0.78206336
0.043508496 0.0041900706 0.78188193
0.043494288 0.0063299378 0.78162658
0.04375761 0.0085224602 0.78635871
0.043901492 0.010711767 0.78894436
0.043976121 0.012894933 0.79028553
0.043918043 0.015040001 0.78924185
0.043825861 0.017165992 0.7875852
0.043974228 0.01938897 0.79025149
0.044150073 0.045548752 0.79341155
0.043990154 0.047549415 0.79053771
0.044086136 0.049823534 0.79226255
