# .PCD v0.7 - Point Cloud Data file format
VERSION 0.7
FIELDS x y z
SIZE 4 4 4
TYPE F F F
COUNT 1 1 1
WIDTH 1395
HEIGHT 1
VIEWPOINT 0 0 0 1 0 0 0
POINTS 1395
DATA ascii
0.012207794 -0.093535833 1.0332915
0.012231953 -0.090884671 1.0353364
0.012215084 -0.087926976 1.0339085
0.012199823 -0.084988311 1.0326167
0.012184319 -0.082055084 1.0313045
0.012165898 -0.079110086 1.0297453
0.012138759 -0.076118954 1.0274482
0.012096586 -0.07304962 1.0238786
0.012056451 -0.070011683 1.0204815
0.01203937 -0.06712088 1.0190357
0.011980887 -0.064016774 1.0140855
0.011968361 -0.061174713 1.0130254
0.011920488 -0.058165971 1.0089734
0.011951275 -0.05554501 1.0115792
0.01192512 -0.052658331 1.0093653
0.011925957 -0.049896721 1.0094362
0.011873591 -0.046924453 1.0050038
0.011717923 -0.043592177 0.99182779
0.011416886 -0.039825015 0.96634746
0.011140102 -0.036276426 0.94291991
0.010964322 -0.033161681 0.92804152
0.010899743 -0.030439004 0.92257547
0.010814704 -0.027693877 0.91537756
0.010789261 -0.025126984 0.9132241
0.010752594 -0.02254835 0.91012049
0.010766464 -0.02008098 0.91129452
0.010733364 -0.017530462 0.9084928
0.010743716 -0.015056185 0.90936899
0.010733259 -0.012552775 0.90848392
0.010747217 -0.010077106 0.90966535
0.010679438 -0.0075372756 0.9039284
0.010601409 -0.0050240196 0.89732385
0.010552889 -0.0025540919 0.89321703
0.01055653 -0.00010719488 0.89352524
0.010509192 0.0023300881 0.8895185
0.010482237 0.0047546634 0.88723695
0.010440775 0.007156794 0.88372755
0.010441022 0.0095779588 0.88374841
0.010459506 0.012020196 0.88531297
0.01044388 0.014423897 0.88399035
0.010464823 0.016879333 0.88576299
0.010467547 0.019310873 0.88599354
0.010526241 0.021859907 0.89096147
0.010520227 0.024286782 0.8904525
0.010500185 0.026675226 0.8887561
0.010492019 0.029087301 0.88806492
0.010501688 0.031549167 0.88888335
0.010479832 0.033913504 0.8870334
0.010456093 0.036261167 0.88502401
0.010445226 0.038645457 0.88410425
0.010446469 0.041072313 0.88420951
0.010440909 0.043471422 0.88373888
0.01044005 0.045888614 0.88366616
0.010401999 0.048133306 0.88044542
0.010355631 0.050319944 0.87652075
0.010329906 0.052590173 0.87434334
0.010318889 0.05492676 0.87341088
0.010333527 0.057400748 0.87464982
0.010319836 0.059717592 0.87349099
0.010330732 0.062176064 0.87441325
0.0103191 0.064498782 0.8734287
0.010273665 0.066596985 0.86958301
0.010210527 0.068555251 0.86423886
0.010114375 0.070254922 0.85610032
0.010087287 0.072405748 0.85380763
0.010058989 0.074535042 0.85141242
0.010077797 0.077011175 0.85300434
0.010046398 0.079100728 0.85034668
0.010054003 0.081491858 0.85099036
0.010049495 0.083785534 0.85060883
0.010078604 0.086365186 0.8530727
0.010070994 0.088635162 0.8524285
0.010072528 0.090984225 0.85255843
0.010052162 0.09313108 0.85083455
0.010072197 0.095652178 0.85253036
0.010020077 0.097480603 0.84811884
0.010011662 0.099720165 0.84740651
0.0099504776 0.101418 0.84222776
0.0099818176 0.10405194 0.84488046
0.0099605089 0.1061394 0.84307688
0.0099859927 0.10872643 0.84523386
0.0099353893 0.11047923 0.84095067
0.0099418936 0.11285682 0.84150124
0.0098933708 0.1146 0.83739412
0.0099169444 0.11717255 0.8393895
0.0098821353 0.11905266 0.83644313
0.0099032465 0.12160331 0.83823007
0.0098813353 0.12362547 0.83637542
0.0098981829 0.12613137 0.83780146
0.009872186 0.1280892 0.83560103
0.009897043 0.13070656 0.83770496
0.0098956777 0.13298309 0.83758944
0.0099266153 0.13570057 0.84020805
0.0098982044 0.13760731 0.83780324
0.009905017 0.13999872 0.83837992
0.0098827435 0.14197545 0.83649462
0.0098991767 0.14450687 0.83788556
0.0098799244 0.14651673 0.83625603
0.0099237859 0.17477994 0.83996856
0.0099381721 0.17733771 0.84118623
0.0098938216 0.17884043 0.83743232
0.0099214585 0.18164051 0.83977157
0.0098815747 0.18320158 0.83639568
0.0098622888 0.18513085 0.83476335
0.0097813001 0.18587859 0.82790828
0.0097908946 0.18833116 0.82872039
0.009764228 0.19008227 0.82646322
0.0097288312 0.19164905 0.8234672
0.0096164485 0.19166501 0.81395489
0.0096041691 0.19364724 0.81291556
0.0095718447 0.19521493 0.81017953
0.0095601659 0.1971935 0.80919105
0.0094871009 0.19788623 0.80300671
0.0094774729 0.19988297 0.80219173
0.0094394069 0.2012689 0.79896975
0.0094661536 0.20403415 0.80123365
0.009462229 0.20614359 0.80090147
0.0094966851 0.20909628 0.80381793
0.009475382 0.21082433 0.80201477
0.009485065 0.21323909 0.80283433
0.0094966525 0.21570161 0.80381513
0.0094823306 0.21757503 0.80260295
0.0094917184 0.21999128 0.80339748
0.0094775911 0.22186148 0.80220175
0.0094937757 0.22444171 0.80357164
0.0094717797 0.22611794 0.80170983
0.009476955 0.22843896 0.80214792
0.0094431415 0.2298135 0.79928589
0.0094538163 0.23226538 0.80018944
0.0094100498 0.23337205 0.79648495
0.0094042839 0.23540965 0.7959969
0.0093577001 0.23641334 0.79205394
0.0093688015 0.2388662 0.79299361
0.0093313074 0.24007392 0.78982002
0.0093438299 0.24256271 0.79087996
0.0093129668 0.24392095 0.78826767
0.0093412092 0.24682662 0.79065812
0.0093158744 0.24831729 0.78851372
0.0093335882 0.25095367 0.79001307
0.0093141412 0.25259051 0.78836703
0.0093404511 0.2554698 0.79059398
0.0093254549 0.25722197 0.78932464
0.009337184 0.25971052 0.79031742
0.0093194842 0.26137912 0.78881925
0.0093274657 0.26376578 0.78949487
0.0092990492 0.26511842 0.78708959
0.0092896698 0.26700506 0.78629571
0.0092705349 0.26860464 0.78467607
0.0092790276 0.27100229 0.78539497
0.0092597315 0.27258581 0.78376168
0.0092639597 0.27485836 0.78411961
0.0092106871 0.27541348 0.77961046
0.0092170974 0.27774236 0.7801531
0.0091748359 0.27859628 0.77657598
0.0091928327 0.28127432 0.77809924
0.0091565121 0.28228617 0.77502501
0.0091696437 0.28481719 0.77613646
0.0091498578 0.28632426 0.77446181
0.0091479644 0.28838617 0.77430147
0.0091242678 0.28975481 0.77229577
0.0091268811 0.29195407 0.77251697
0.009142125 0.29456154 0.77380729
0.009174793 0.2977415 0.77657235
0.0091572283 0.2992948 0.77508563
0.0091444859 0.30099869 0.77400708
0.0091307862 0.30266491 0.77284747
0.009156676 0.3056463 0.7750389
0.009139128 0.30717969 0.77355361
0.0091233216 0.30876389 0.77221572
0.0090896329 0.30973139 0.76936424
0.0091099255 0.3125352 0.77108181
0.009042751 0.31232741 0.76539606
0.0090195341 0.31361693 0.76343095
0.0089533636 0.31339213 0.75783008
0.0089814244 0.31645688 0.76020521
0.0089683449 0.31807557 0.75909817
0.0090006664 0.32130891 0.76183391
0.0089720916 0.32236925 0.75941533
0.00899156 0.32515362 0.7610631
0.0089513902 0.32577661 0.75766307
0.0089652166 0.32835862 0.75883341
0.0089011583 0.32807636 0.75341135
0.0088922242 0.32980892 0.75265515
0.008840899 0.32995525 0.74831086
0.0088395998 0.33195645 0.74820089
0.0088202367 0.33327448 0.746562
0.0088331029 0.33580881 0.74765104
0.0088063516 0.33683375 0.74538672
0.0088096876 0.33900404 0.74566907
0.0087772897 0.33979258 0.74292684
0.0087810894 0.34197581 0.74324852
0.0087538399 0.34294438 0.74094206
0.0087470366 0.34470603 0.74036616
0.0087165954 0.34552753 0.73778957
0.0087257223 0.34791261 0.73856211
0.0087147458 0.34949565 0.73763305
0.0087195225 0.35170904 0.73803735
0.0087035671 0.35308358 0.73668683
0.0087030763 0.35508168 0.73664528
0.014913401 -0.1039865 1.0246989
0.015005073 -0.10180133 1.0309976
0.015031562 -0.099151671 1.0328177
0.015081562 -0.09664271 1.0362532
0.015067233 -0.093714811 1.0352687
0.015084771 -0.090984516 1.0364738
0.015067096 -0.088041849 1.0352592
0.015077119 -0.085262477 1.0359479
0.015043869 -0.082242757 1.0336633
0.015020304 -0.079286695 1.0320442
0.014961749 -0.076161385 1.0280209
0.014923735 -0.073158801 1.0254089
0.014867832 -0.070086211 1.0215678
0.01484928 -0.067203701 1.0202931
0.01478405 -0.064125717 1.0158112
0.014744804 -0.061180096 1.0131146
0.014666722 -0.058095422 1.0077496
0.014683889 -0.0553995 1.0089291
0.014644549 -0.052494556 1.0062261
0.014657842 -0.049783189 1.0071394
0.01459559 -0.046824455 1.0028621
0.014501604 -0.043793324 0.99640435
0.01421212 -0.040243994 0.97651392
0.013833412 -0.036567777 0.95049292
0.013511425 -0.03317339 0.92836916
0.013411004 -0.030402506 0.92146927
0.013308705 -0.027665522 0.91444027
0.013277404 -0.025101272 0.91228962
0.013232206 -0.022525148 0.90918404
0.013251481 -0.020063657 0.91050839
0.013210095 -0.017514484 0.90766484
0.013211775 -0.015029881 0.90778023
0.013198084 -0.012530054 0.90683955
0.013216631 -0.010059919 0.9081139
0.013171248 -0.0075461748 0.90499568
0.013088105 -0.0050349883 0.89928293
0.013026475 -0.0025593285 0.89504832
0.013023367 -0.00010735198 0.89483476
0.012970367 0.0023344746 0.89119315
0.012931125 0.0047614146 0.88849682
0.012838515 0.0071438854 0.88213354
0.01282868 0.0095531335 0.88145781
0.012842823 0.011981048 0.8824296
0.012867163 0.014425718 0.88410199
0.012890667 0.016878456 0.88571692
0.012900104 0.019318977 0.88636535
0.01295184 0.021834359 0.88992012
0.012940413 0.024250848 0.889135
0.012932114 0.026669484 0.88856477
0.012929937 0.029098773 0.88841516
0.012951651 0.031585503 0.88990712
0.012892684 0.033868469 0.88585556
0.012870274 0.036232151 0.88431579
0.012849965 0.038593706 0.88292032
0.012878479 0.041103434 0.88487947
0.012877868 0.043525465 0.88483757
0.012869415 0.045919284 0.88425672
0.012784446 0.048022494 0.87841845
0.012710408 0.050136846 0.87333137
0.012705897 0.052510664 0.87302142
0.012714803 0.054940749 0.87363333
0.012729226 0.057399075 0.87462431
0.0126899 0.059610341 0.87192225
0.012708775 0.062091153 0.87321913
0.012704128 0.064459734 0.87289989
0.012622582 0.066421896 0.86729681
0.012539184 0.068343267 0.86156654
0.01243959 0.070141934 0.85472345
0.012437329 0.072470233 0.85456806
0.012407716 0.074633174 0.8525334
0.012419953 0.077044562 0.85337418
0.012356853 0.078979045 0.8490386
0.012366034 0.081365369 0.84966946
0.012385137 0.083822288 0.85098201
0.012430671 0.086470261 0.8541106
0.01241985 0.088732757 0.85336709
0.012401 0.090932302 0.85207194
0.012400538 0.093263045 0.85204017
0.012410484 0.095673859 0.8527236
0.012351225 0.097541876 0.84865195
0.012319901 0.099613443 0.84649962
0.012263118 0.1014626 0.84259808
0.012288949 0.10398944 0.84437293
0.012246462 0.10593504 0.84145361
0.012267938 0.10842998 0.84292924
0.012215634 0.11026703 0.83933544
0.012236436 0.11275805 0.84076476
0.012188469 0.11461025 0.83746898
0.012211797 0.11712821 0.83907181
0.012187848 0.1191926 0.8374263
0.012222648 0.12183358 0.83981735
0.01219682 0.12387193 0.8380428
0.012209681 0.12630074 0.83892643
0.012159093 0.12806612 0.83545053
0.012181925 0.13059957 0.83701926
0.012168678 0.13274805 0.8361091
0.012216023 0.13556395 0.8393622
0.012199467 0.13767651 0.83822465
0.012216877 0.14017254 0.83942086
0.012185822 0.14210995 0.83728707
0.012180149 0.14433643 0.83689725
0.012147325 0.14623393 0.83464193
0.01217485 0.14885697 0.83653325
0.012184151 0.15126409 0.83717233
0.012241626 0.15428182 0.84112138
0.012224277 0.15636413 0.83992928
0.012251595 0.15901966 0.84180635
0.012293157 0.16418695 0.84466207
0.012269991 0.16618711 0.84307033
0.012284888 0.16870125 0.84409392
0.012246771 0.17048299 0.84147489
0.012269259 0.17310546 0.84302008
0.012208045 0.17453969 0.83881396
0.01221676 0.17696384 0.83941281
0.012163708 0.17848492 0.83576763
0.01219545 0.18124621 0.83794862
0.012150639 0.18286732 0.83486962
0.012156093 0.18523754 0.83524442
0.012075548 0.18628314 0.82971019
0.012080849 0.18863888 0.83007443
0.011987674 0.18944038 0.82367235
0.011921391 0.19063686 0.81911802
0.01179624 0.19085594 0.81051892
0.011800728 0.19314978 0.81082726
0.011768101 0.19483083 0.80858546
0.011762158 0.19694643 0.80817717
0.011666352 0.19753817 0.80159432
0.011651303 0.19947647 0.8005603
0.011615703 0.20105338 0.79811424
0.011652425 0.20388232 0.80063742
0.011633639 0.20574339 0.79934663
0.011665447 0.20850168 0.80153215
0.011628749 0.21003462 0.79901063
0.0116464 0.21254562 0.80022347
0.011683686 0.21542527 0.80278534
0.011676336 0.21748756 0.80228031
0.011681421 0.21978106 0.80262971
0.011651109 0.22140384 0.800547
0.011661539 0.22379707 0.80126363
0.011639151 0.22555824 0.79972535
0.011657865 0.22811523 0.8010112
0.011628505 0.22972955 0.79899389
0.011662496 0.23259628 0.80132943
0.011615461 0.23384456 0.79809761
0.011595344 0.23562214 0.79671538
0.01150512 0.23595434 0.79051614
0.011513955 0.23830278 0.79112315
0.011483364 0.23983113 0.78902125
0.011526245 0.24289629 0.79196757
0.011495725 0.24441695 0.78987056
0.011536757 0.24746092 0.79268992
0.011495808 0.24874638 0.78987628
0.011518532 0.25140622 0.79143769
0.011487849 0.25289884 0.78932941
0.011514189 0.25564599 0.79113919
0.011496739 0.25742254 0.78994018
0.011507955 0.25983983 0.79071093
0.011485605 0.26149708 0.78917521
0.011483439 0.26360929 0.78902638
0.0114462 0.26490897 0.78646773
0.01143517 0.2668061 0.7857098
0.011396079 0.26803908 0.78302389
0.011402746 0.2703422 0.78348196
0.011381048 0.27197003 0.78199112
0.01139991 0.27456653 0.78328711
0.011342964 0.27533007 0.77937436
0.011353228 0.27771619 0.7800796
0.011296596 0.27845725 0.77618843
0.011323095 0.28124174 0.77800918
0.011281127 0.28232279 0.77512556
0.011311936 0.28522304 0.77724242
0.011284582 0.28665742 0.77536297
0.011285044 0.28879333 0.77539468
0.011226553 0.28940961 0.77137572
0.011233674 0.29170772 0.77186507
0.011244948 0.29411706 0.77263969
0.011302336 0.29774553 0.77658284
0.011295224 0.29968423 0.77609414
0.011291767 0.30171794 0.77585661
0.01126451 0.30310991 0.77398378
0.011272099 0.30543584 0.7745052
0.011253403 0.30704746 0.77322066
0.01125316 0.30915901 0.77320397
0.01121424 0.3102006 0.77052975
0.011218067 0.31241801 0.77079272
0.011163453 0.31299829 0.76704013
0.011159333 0.31498331 0.76675713
0.011081615 0.31487548 0.76141703
0.011075126 0.31677577 0.76097125
0.011033332 0.31765714 0.75809956
0.011059578 0.3204945 0.75990289
0.011038227 0.32195348 0.7584359
0.011065758 0.32483935 0.76032752
0.011034272 0.32599205 0.75816411
0.01105198 0.32859552 0.75938088
0.010978289 0.32847098 0.75431758
0.010963749 0.33009964 0.75331855
0.010899789 0.33022553 0.74892384
0.010896686 0.33218259 0.74871063
0.010860799 0.33313289 0.74624485
0.01086933 0.33544049 0.746831
0.010831157 0.33630112 0.7442081
0.01084494 0.33877045 0.74515522
0.010798975 0.33936724 0.74199688
0.010815188 0.34191251 0.7431109
0.010783763 0.34294882 0.74095166
0.01079223 0.3452495 0.74153346
0.010751612 0.34597388 0.73874265
0.010759986 0.34826866 0.73931795
0.010732955 0.34941399 0.73746067
0.010735519 0.35151818 0.73763686
0.010708199 0.35263923 0.73575968
0.010737364 0.35562077 0.73776364
0.017808022 -0.10449995 1.0297585
0.017877966 -0.10207833 1.033803
0.017908402 -0.09941522 1.035563
0.017975518 -0.096940286 1.039444
0.017958999 -0.0940063 1.0384887
0.01795616 -0.091146983 1.0383246
0.017924054 -0.088144653 1.036468
0.017944209 -0.085401215 1.0376335
0.017923778 -0.08246465 1.0364521
0.017916348 -0.079592325 1.0360224
0.017825017 -0.076362923 1.0307412
0.017771533 -0.073318586 1.0276484
0.017687926 -0.070171691 1.0228138
0.017646156 -0.067210637 1.0203985
0.017571477 -0.064142689 1.0160801
0.017528098 -0.061207704 1.0135717
0.017453657 -0.058182906 1.0092671
0.017433492 -0.055354033 1.0081011
0.017375426 -0.052417204 1.0047433
0.017370695 -0.049651224 1.0044698
0.017330131 -0.046789996 1.0021241
0.017295128 -0.043955754 1.0001
0.016900498 -0.040275581 0.97728038
0.016414667 -0.036517534 0.94918692
0.016012732 -0.033086762 0.92594486
0.015943626 -0.030418325 0.92194873
0.015822429 -0.027680654 0.91494048
0.015754098 -0.025065491 0.91098917
0.015708184 -0.022504093 0.9083342
0.01574197 -0.020058798 0.91028786
0.015716955 -0.017537188 0.90884137
0.015698448 -0.015029732 0.90777123
0.01565635 -0.012509291 0.90533686
0.015679903 -0.010044243 0.90669882
0.015582683 -0.0075134998 0.90107703
0.01553293 -0.0050289254 0.89820004
0.015431229 -0.0025515244 0.89231914
0.015463128 -0.00010727147 0.89416367
0.01540248 0.0023330695 0.89065671
0.01540068 0.0047724317 0.89055258
0.015302362 0.0071660243 0.88486731
0.015288744 0.009581551 0.88407987
0.015278529 0.011995434 0.88348919
0.015310502 0.014445886 0.88533801
0.015352407 0.016917413 0.88776124
0.015360905 0.01936011 0.88825256
0.015403704 0.021854166 0.89072746
0.015377076 0.024252284 0.88918769
0.015369668 0.026675323 0.88875932
0.015356971 0.029085997 0.8880251
0.015373492 0.031552613 0.88898045
0.015339135 0.033911988 0.88699377
0.01530893 0.036270309 0.88524711
0.015247933 0.038541231 0.88171989
0.01527554 0.04103082 0.88331628
0.015256082 0.043395288 0.88219112
0.015284421 0.045897115 0.88382983
0.015166298 0.047944911 0.87699932
0.015099226 0.050124764 0.8731209
0.015071175 0.052419081 0.87149882
0.015077574 0.054829787 0.87186885
0.015100863 0.057306617 0.8732155
0.015086167 0.059640661 0.87236571
0.015112014 0.062136743 0.8738603
0.015109466 0.064519778 0.87371302
0.014999865 0.066427901 0.86737525
0.014916967 0.068423793 0.86258161
0.014802165 0.070242025 0.85594314
0.014805387 0.072602645 0.85612947
0.014776479 0.074801639 0.8544578
0.014794221 0.077235021 0.85548377
0.014726919 0.07921657 0.851592
0.014709441 0.08145269 0.85058135
0.014700676 0.083732903 0.85007453
0.014751182 0.086357318 0.85299504
0.014763753 0.088769659 0.85372198
0.014766018 0.091122374 0.85385293
0.014741492 0.093306229 0.85243469
0.014735177 0.095600478 0.85206956
0.014671848 0.09751378 0.84840751
0.014638457 0.099610746 0.84647667
0.014581114 0.10153034 0.84316075
0.014576398 0.10380657 0.84288806
0.014513542 0.10565803 0.83925337
0.014533119 0.10810276 0.84038544
0.014489428 0.11007306 0.83785897
0.014530971 0.11269052 0.84026122
0.014493929 0.11469924 0.83811927
0.014519846 0.11720444 0.83961791
0.014514665 0.11946189 0.83931834
0.014558655 0.12213022 0.84186208
0.014530298 0.12419409 0.8402223
0.01452913 0.12648568 0.84015477
0.01444592 0.12804966 0.83534312
0.014471298 0.13056701 0.83681059
0.014428939 0.13247053 0.83436114
0.014487214 0.13530049 0.83773094
0.014463458 0.1373698 0.83635724
0.014497596 0.1399906 0.83833128
0.014469812 0.14201449 0.83672464
0.014469454 0.1443031 0.83670396
0.014440606 0.14630294 0.8350358
0.014460649 0.14879674 0.83619481
0.014454042 0.15101843 0.83581275
0.014472724 0.15350625 0.83689302
0.014441768 0.15546565 0.83510298
0.014493428 0.15831769 0.8380903
0.014484401 0.16051358 0.83756828
0.014566857 0.16373488 0.84233636
0.014535127 0.16568075 0.84050155
0.014550429 0.16816011 0.84138638
0.014520889 0.17011899 0.83967823
0.014535136 0.17258841 0.84050202
0.014492562 0.17437868 0.83804017
0.014489227 0.17663381 0.83784735
0.014439053 0.17830944 0.83494598
0.014482104 0.18113522 0.83743548
0.014408418 0.18249603 0.83317453
0.01440848 0.18477929 0.8331781
0.014325946 0.18599021 0.8284055
0.014345622 0.18851817 0.82954329
0.014205156 0.18892254 0.82142079
0.014125198 0.19009672 0.8167972
0.014009489 0.19075875 0.81010622
0.014016276 0.19307151 0.81049871
0.013965278 0.19458127 0.80754972
0.013961762 0.19674398 0.8073464
0.013858713 0.19748722 0.80138755
0.013823589 0.19917651 0.79935646
0.013771654 0.20060979 0.79635328
0.013805185 0.20328511 0.79829222
0.013799181 0.20538265 0.79794508
0.013811011 0.20774652 0.79862911
0.013779443 0.20945449 0.79680371
0.013816382 0.21220465 0.7989397
0.013891377 0.21555702 0.8032763
0.013879108 0.21756525 0.80256689
0.01389218 0.21997084 0.80332279
0.013842152 0.22137146 0.80042988
0.013867238 0.22396936 0.80188048
0.013853884 0.22594829 0.8011083
0.013869043 0.22839251 0.80198485
0.013825922 0.2298726 0.79949141
0.013846675 0.23241109 0.80069143
0.013804073 0.23388276 0.79822797
0.013781295 0.23567994 0.79691082
0.013709069 0.23661643 0.79273432
0.013696175 0.23856349 0.79198867
0.01366125 0.24011923 0.78996909
0.013680817 0.24263038 0.79110056
0.013642924 0.24411954 0.78890944
0.013678112 0.24691592 0.79094416
0.013639957 0.24838787 0.78873783
0.0136763 0.25121614 0.79083937
0.01364087 0.25272623 0.78879064
0.013652602 0.2551063 0.78946906
0.013635703 0.25695059 0.7884919
0.013659196 0.25955704 0.78985035
0.013645214 0.26145288 0.78904182
0.013635328 0.26342344 0.78847015
0.013586981 0.26464179 0.78567451
0.013573738 0.26653406 0.78490871
0.01351474 0.26751646 0.78149712
0.013538606 0.27013353 0.78287721
0.01352117 0.27192754 0.78186893
0.013577353 0.27520823 0.78511775
0.013505423 0.27588964 0.78095829
0.013516574 0.27825859 0.78160316
0.013435293 0.27871361 0.77690303
0.013440128 0.28094298 0.77718264
0.01339288 0.2820769 0.77445048
0.013424363 0.28486654 0.77627099
0.013410366 0.2866939 0.77546161
0.013409895 0.28880811 0.77543437
0.013343834 0.28949916 0.77161437
0.013360906 0.29198608 0.7726016
0.013373708 0.29438439 0.77334189
0.013436889 0.29790369 0.77699536
0.013430439 0.29988819 0.77662235
0.013433304 0.30208012 0.776788
0.013398265 0.30341464 0.77476192
0.013390726 0.30536515 0.77432597
0.013361819 0.3068226 0.77265435
0.013379192 0.30934095 0.77365899
0.013337868 0.31049836 0.77126938
0.013351331 0.31292677 0.77204794
0.013298245 0.31378913 0.76897818
0.013294695 0.3158114 0.7687729
0.013212829 0.31595972 0.76403892
0.013204888 0.31786165 0.76357979
0.013155594 0.31875905 0.76072931
0.013157669 0.32089362 0.76084924
0.013106584 0.32172397 0.75789523
0.013134441 0.3244884 0.75950611
0.013127338 0.32639247 0.75909537
0.013154485 0.32915124 0.76066518
0.013061742 0.32889974 0.75530225
0.013035923 0.33031467 0.75380927
0.01296387 0.33054253 0.74964273
0.012956501 0.33240709 0.74921662
0.012906771 0.33317581 0.74634099
0.012910604 0.33531994 0.74656266
0.012872017 0.33635679 0.7443313
0.012870022 0.33834344 0.74421597
0.012808229 0.33874789 0.74064273
0.012829059 0.34133106 0.74184722
0.01279685 0.34250128 0.73998475
0.0128079 0.34482592 0.74062371
0.012779974 0.34609857 0.7390089
0.012790493 0.34840956 0.73961711
0.012764845 0.34973302 0.73813403
0.012740795 0.35109237 0.73674327
0.012708934 0.35222763 0.73490095
0.012757975 0.35560781 0.73773676
0.020721007 -0.104966 1.034351
0.020787874 -0.10246202 1.0376889
0.020810382 -0.099727169 1.0388124
0.020886717 -0.09723676 1.0426229
0.020845611 -0.094194792 1.040571
0.020844961 -0.091341332 1.0405385
0.020807371 -0.088331237 1.0386621
0.02085487 -0.085681014 1.0410331
0.02081785 -0.082682103 1.0391852
0.020808954 -0.079801187 1.0387411
0.020667125 -0.076431081 1.0316613
0.020651717 -0.073550008 1.0308921
0.020539306 -0.070340946 1.0252808
0.020523855 -0.067481421 1.0245095
0.020420892 -0.064350367 1.0193698
0.020388041 -0.061458815 1.01773
0.020238468 -0.058240358 1.0102637
0.020192128 -0.055345759 1.0079504
0.020093275 -0.052327082 1.0030159
0.020107877 -0.049615387 1.0037447
0.020061752 -0.046758164 1.0014423
0.020068852 -0.044030327 1.0017967
0.019536635 -0.040191062 0.9752295
0.018823283 -0.036149487 0.93962044
0.018478526 -0.032960482 0.92241085
0.018444771 -0.030377977 0.92072582
0.018335445 -0.02769058 0.91526854
0.018262617 -0.02508321 0.91163313
0.018231785 -0.022547694 0.91009402
0.018272061 -0.02009883 0.91210455
0.018251894 -0.017580729 0.91109788
0.018213682 -0.015053228 0.90919036
0.018145788 -0.012515708 0.9058013
0.018139008 -0.010030551 0.9054628
0.018018998 -0.0075001172 0.89947212
0.017993251 -0.0050288518 0.89818692
0.017880652 -0.0025522308 0.89256614
0.017902246 -0.00010720914 0.89364409
0.017826719 0.0023310189 0.88987392
0.017844236 0.0047734808 0.89074838
0.01776324 0.0071809087 0.88670522
0.017753428 0.0096046962 0.88621545
0.017747588 0.012028491 0.88592392
0.017800447 0.014498499 0.8885625
0.017845111 0.016975168 0.89079201
0.017856291 0.019427624 0.89135009
0.017855989 0.021869073 0.89133501
0.017818023 0.024259163 0.88943988
0.017797424 0.026664885 0.88841158
0.017760869 0.029038889 0.88658684
0.017749993 0.03144839 0.88604397
0.017715313 0.033809487 0.88431275
0.017719192 0.036239963 0.8845064
0.01769009 0.03859954 0.88305378
0.017732101 0.041116036 0.88515079
0.017666159 0.043378957 0.88185912
0.01763683 0.045718748 0.88039505
0.017508214 0.047779564 0.8739748
0.017490223 0.050122231 0.8730768
0.01747687 0.052473895 0.87241018
0.017506139 0.054955713 0.87387127
0.017516945 0.057385053 0.87441063
0.017504357 0.059737507 0.87378228
0.017501304 0.062120363 0.87362993
0.017478364 0.064429075 0.87248474
0.017364979 0.066385746 0.86682481
0.017309604 0.06854111 0.86406058
0.017184762 0.070396766 0.8578288
0.017167283 0.072672762 0.85695624
0.017120147 0.074814387 0.85460335
0.01716744 0.077368662 0.85696405
0.017105648 0.079429358 0.85387957
0.017079148 0.081641853 0.85255671
0.017034054 0.083755679 0.85030574
0.017074196 0.086287916 0.85230953
0.017079996 0.088652894 0.85259902
0.017077453 0.090975016 0.85247213
0.017026769 0.093033388 0.84994203
0.017007815 0.095255613 0.84899586
0.016968856 0.097357884 0.84705114
0.016945133 0.099538997 0.84586698
0.016894041 0.10154911 0.84331656
0.016885515 0.10380692 0.84289092
0.016837506 0.10581427 0.84049439
0.016847523 0.1081811 0.84099448
0.016788334 0.11009682 0.83803982
0.016800057 0.11247109 0.83862507
0.016755654 0.11446512 0.83640856
0.016779425 0.11692207 0.83759511
0.016781937 0.11923449 0.83772057
0.016824134 0.12183497 0.83982694
0.016782252 0.12382662 0.83773625
0.016780995 0.12611212 0.83767354
0.016728215 0.12800302 0.83503884
0.016774971 0.13065474 0.83737278
0.016738037 0.13265596 0.83552909
0.016771374 0.13521366 0.83719325
0.01672978 0.13716608 0.83511698
0.016767293 0.13976656 0.83698958
0.016749088 0.1419052 0.83608073
0.016762028 0.144307 0.83672667
0.016738122 0.14639011 0.83553338
0.016749699 0.14878187 0.83611125
0.016742732 0.15100953 0.83576351
0.016737498 0.15325114 0.83550221
0.016697571 0.15516894 0.83350915
0.016739091 0.15784381 0.83558172
0.016714321 0.15989591 0.83434528
0.016756143 0.16258736 0.83643293
0.016732365 0.16464476 0.83524597
0.016781848 0.16742657 0.8377161
0.016776925 0.16967167 0.83747035
0.016782684 0.17202492 0.83775783
0.016752468 0.17400609 0.83624953
0.016731603 0.17607738 0.835208
0.016707771 0.17811133 0.83401829
0.016731553 0.18065287 0.8352055
0.016670801 0.18227664 0.83217287
0.01665738 0.18440777 0.83150291
0.016585564 0.18588077 0.82791799
0.016610933 0.18843661 0.82918441
0.016439497 0.18873988 0.82062662
0.016348297 0.18992843 0.81607407
0.016232619 0.1908043 0.81029969
0.016214337 0.19280671 0.80938709
0.016149309 0.19424184 0.80614102
0.016142119 0.19636276 0.80578208
0.016080258 0.19780922 0.8026942
0.016039982 0.19950721 0.80068368
0.015986629 0.20102973 0.79802036
0.016013006 0.20355117 0.79933703
0.016016064 0.20578021 0.79948968
0.016014803 0.20795402 0.79942679
0.015966332 0.20950799 0.7970072
0.01601251 0.21230361 0.79931229
0.016085265 0.21546789 0.80294412
0.016054269 0.21724807 0.80139685
0.016064335 0.21958104 0.80189925
0.016028935 0.22128911 0.80013216
0.016065344 0.22398868 0.80194968
0.016038718 0.22581071 0.8006205
0.016026344 0.22782809 0.80000287
0.015964633 0.22913395 0.79692239
0.015987465 0.23164791 0.79806215
0.015938114 0.23311234 0.79559857
0.015919678 0.2350197 0.79467833
0.015859025 0.23629296 0.79165059
0.015868602 0.23860566 0.79212868
0.015849352 0.2404836 0.7911678
0.015868999 0.24295177 0.79214847
0.015828341 0.2444938 0.79011893
0.015842356 0.24687672 0.79081857
0.015791787 0.24824817 0.78829426
0.015810698 0.25070754 0.78923827
0.015758265 0.25203103 0.78662086
0.015790759 0.25471008 0.78824288
0.015768111 0.25650105 0.78711241
0.015835838 0.25976828 0.79049319
0.015790006 0.26117572 0.78820539
0.015787097 0.26328644 0.78806013
0.015714519 0.26422498 0.78443712
0.015730483 0.26664454 0.78523409
0.015686378 0.26804203 0.78303248
0.015707057 0.27054328 0.78406465
0.015678287 0.2721917 0.78262854
0.015730388 0.27524737 0.78522938
0.015669353 0.27632213 0.78218257
0.015677191 0.27860418 0.78257388
0.015592144 0.27922499 0.77832848
0.015601089 0.28151858 0.77877498
0.015547478 0.28267726 0.77609879
0.015576333 0.28533193 0.77753919
0.015532271 0.28664884 0.77533972
0.015540678 0.28892916 0.7757594
0.015454893 0.2894477 0.77147716
0.015491417 0.29225013 0.77330035
0.015474496 0.29404706 0.77245575
0.015551204 0.29763123 0.77628481
0.015540144 0.29954466 0.77573276
0.015566322 0.30217794 0.77703947
0.015527163 0.30354106 0.77508473
0.015525155 0.30562484 0.77498448
0.015490947 0.30706981 0.77327693
0.015525244 0.30987275 0.77498895
0.015474824 0.31098256 0.77247208
0.015483453 0.31327328 0.77290285
0.015430341 0.31430876 0.77025157
0.015445043 0.31672031 0.77098548
0.015352386 0.31691968 0.76636022
0.015319394 0.31833354 0.76471335
0.01525664 0.31911582 0.76158077
0.015237543 0.3208001 0.76062751
0.015179406 0.32165188 0.75772542
0.015170693 0.32354182 0.75729048
0.015161376 0.32541642 0.75682539
0.015202931 0.32838732 0.75889975
0.015115122 0.32855758 0.75451648
0.015093296 0.33014715 0.75342697
0.015016575 0.33052248 0.74959725
0.015046732 0.33324382 0.75110257
0.01498701 0.33397061 0.74812138
0.014989188 0.3360689 0.7482301
0.014949454 0.33722234 0.7462467
0.014949163 0.33926004 0.74623215
0.014865844 0.33940205 0.742073
0.01487496 0.34164435 0.74252808
0.014813298 0.3422538 0.73945004
0.014828384 0.34463009 0.74020308
0.014761267 0.34508881 0.73685277
0.014784785 0.34766039 0.73802674
0.014762955 0.34916586 0.73693699
0.014768692 0.35132116 0.73722339
0.014723927 0.35226974 0.73498881
0.014762504 0.35521147 0.73691452
0.023616821 -0.10524339 1.0370845
0.023665948 -0.10261536 1.0392418
0.023687882 -0.099860862 1.040205
0.023776611 -0.09737464 1.0441014
0.023752769 -0.094419591 1.0430543
0.023783706 -0.091681428 1.0444129
0.023692535 -0.088479832 1.0404093
0.023722025 -0.085736252 1.0417043
0.023705512 -0.082824841 1.0409791
0.023744918 -0.080106065 1.0427096
0.023625549 -0.076861255 1.0374677
0.023588344 -0.073902585 1.035834
0.023456307 -0.07066717 1.0300359
0.023406455 -0.067701228 1.0278467
0.023278112 -0.064529702 1.0222107
0.023226548 -0.061592661 1.0199465
0.023040995 -0.058328822 1.0117983
0.022992976 -0.055441253 1.0096896
0.022905443 -0.052474719 1.0058458
0.022911003 -0.04973131 1.0060899
0.022845197 -0.046840239 1.0032002
0.02283114 -0.044064879 1.0025829
0.02217095 -0.040123574 0.97359198
0.021379178 -0.036118805 0.93882293
0.020965846 -0.032898359 0.9206723
0.020948203 -0.03035065 0.91989756
0.020840563 -0.027687622 0.91517079
0.020767968 -0.025092835 0.91198295
0.020708928 -0.022530258 0.90939027
0.020726578 -0.020056099 0.91016537
0.020656524 -0.017503375 0.90708905
0.020627905 -0.01499763 0.90583235
0.020558735 -0.012474168 0.9027949
0.020565666 -0.010004368 0.90309924
0.020427542 -0.0074797859 0.89703381
0.020420857 -0.0050207521 0.89674026
0.02033673 -0.0025536027 0.89304596
0.020372456 -0.0001073256 0.89461482
0.020234473 0.0023275656 0.88855559
0.02025437 0.0047664116 0.88942927
0.020217111 0.0071897195 0.88779318
0.020245651 0.0096353777 0.88904643
0.020226652 0.012059559 0.88821214
0.020269817 0.014523711 0.89010763
0.020328049 0.017010855 0.89266473
0.020313295 0.019442156 0.89201689
0.02028418 0.021854432 0.89073831
0.020198729 0.024192233 0.88698596
0.020190964 0.026611861 0.88664496
0.020130547 0.028953895 0.8839919
0.020116035 0.031352937 0.8833546
0.020060509 0.033679631 0.8809163
0.020070251 0.036110394 0.88134408
0.020056073 0.03849759 0.88072151
0.02011532 0.041031141 0.88332319
0.020050559 0.043311086 0.8804794
0.020032085 0.045680996 0.87966812
0.019940315 0.047870502 0.87563825
0.01996146 0.050322585 0.87656677
0.019914195 0.052599069 0.87449121
0.019923851 0.055021368 0.87491524
0.019905448 0.057365134 0.87410712
0.019940706 0.05986556 0.87565535
0.01988009 0.062075116 0.87299359
0.019865785 0.06442026 0.87236536
0.019769322 0.066485666 0.86812943
0.019757891 0.068824045 0.86762744
0.019592477 0.070604786 0.8603636
0.019514205 0.072670236 0.8569265
0.019431954 0.074701563 0.85331458
0.019482605 0.077239998 0.85553885
0.019427883 0.079360172 0.85313576
0.019409781 0.081621185 0.85234088
0.019338673 0.08364857 0.84921837
0.019366732 0.086099714 0.85045052
0.019335592 0.088287309 0.84908307
0.019344961 0.090657242 0.84949446
0.019273859 0.092642628 0.84637213
0.01926697 0.094927296 0.84606963
0.019223996 0.097028174 0.84418255
0.019230166 0.099372655 0.84445345
0.019193869 0.10149408 0.84285957
0.019198334 0.10382721 0.84305567
0.019119652 0.10570173 0.83960044
0.019140955 0.10812213 0.840536
0.019083399 0.11009271 0.83800852
0.019106876 0.11252666 0.83903944
0.019042546 0.11443857 0.83621448
0.019077329 0.11694256 0.83774191
0.019072594 0.11920793 0.83753401
0.019135132 0.12190073 0.84028023
0.019080598 0.12384868 0.8378855
0.019092299 0.12622139 0.83839929
0.019018847 0.12802371 0.83517385
0.019074421 0.13069241 0.83761424
0.019029152 0.1326714 0.8356263
0.019065965 0.13522168 0.83724296
0.019008126 0.13709809 0.83470303
0.019040061 0.1396189 0.83610541
0.019001253 0.14162014 0.83440125
0.019021666 0.14406054 0.83529758
0.01900686 0.14623488 0.83464742
0.019010019 0.14854607 0.83478612
0.018979907 0.15059401 0.83346385
0.018965356 0.15276006 0.83282489
0.018950598 0.15492091 0.83217686
0.018986538 0.15749875 0.83375502
0.018942213 0.15940976 0.83180857
0.01895738 0.16181795 0.83247465
0.018966706 0.16417921 0.83288419
0.01904818 0.16717592 0.83646196
0.019064868 0.16961583 0.83719474
0.019060897 0.17187348 0.83702034
0.019014925 0.17374642 0.83500159
0.018984757 0.17575459 0.83367687
0.018952761 0.17773834 0.83227175
0.018966934 0.18015294 0.83289415
0.01887873 0.18158624 0.82902092
0.018840097 0.18348107 0.82732439
0.018753096 0.18488973 0.82350391
0.018794147 0.18755536 0.82530659
0.018645009 0.18831 0.81875753
0.018569265 0.18977883 0.81543136
0.018442245 0.19069925 0.80985355
0.018418862 0.19267322 0.80882668
0.018348157 0.19414085 0.80572188
0.018330559 0.19615978 0.8049491
0.018282594 0.19784583 0.8028428
0.018251007 0.19969958 0.80145574
0.018195234 0.20127818 0.79900658
0.018191114 0.20342094 0.79882562
0.018191786 0.20561691 0.79885519
0.018187849 0.20776033 0.79868221
0.01813974 0.20939296 0.79656965
0.018172311 0.21195503 0.79799992
0.018237954 0.21491465 0.80088252
0.018208126 0.21675356 0.79957265
0.018255355 0.21951187 0.80164665
0.018236594 0.22148012 0.80082279
0.018276138 0.22415896 0.80255932
0.018230947 0.22579783 0.80057484
0.018218249 0.22783217 0.80001724
0.018165115 0.22935291 0.79768395
0.01818255 0.23176037 0.79844958
0.018118078 0.23311813 0.79561836
0.018064369 0.23460019 0.79325986
0.018006083 0.23600931 0.79070032
0.018036289 0.23857498 0.79202682
0.018020714 0.24053681 0.79134285
0.018022992 0.24273536 0.79144287
0.017979434 0.24431162 0.78953016
0.017994162 0.24667639 0.79017687
0.017929718 0.24794985 0.78734696
0.017929956 0.25011006 0.78735739
0.017872984 0.25146544 0.7848556
0.017913787 0.2541945 0.78664738
0.017896706 0.25610507 0.78589731
0.01796926 0.259305 0.78908336
0.017916622 0.2607007 0.78677183
0.017924476 0.26297128 0.78711677
0.017845515 0.26395965 0.78364938
0.017873267 0.26652023 0.784868
0.017825833 0.26795733 0.78278506
0.017874228 0.27083501 0.7849102
0.017846638 0.2725639 0.78369868
0.017911758 0.27571318 0.78655827
0.017826453 0.27654457 0.78281224
0.017823325 0.27864015 0.78267491
0.01773154 0.2793383 0.77864438
0.017755559 0.28185263 0.77969909
0.017709775 0.28325632 0.77768862
0.01772026 0.28555572 0.77814901
0.017664073 0.28677526 0.77568167
0.017656764 0.28878069 0.77536076
0.017568225 0.289446 0.77147269
0.017603429 0.29214367 0.77301866
0.017604578 0.29428053 0.77306908
0.017697824 0.29796827 0.7771638
0.01766731 0.29957983 0.77582383
0.017686583 0.30203432 0.77667022
0.017656177 0.30363905 0.77533495
0.017674532 0.30608094 0.77614099
0.017610019 0.30708218 0.77330804
0.017618306 0.30934614 0.77367193
0.017560264 0.31043947 0.77112311
0.017595338 0.31317621 0.7726633
0.017542478 0.31434569 0.77034205
0.017541077 0.31643075 0.7702806
0.017439986 0.31670511 0.76584136
0.0174265 0.31855658 0.76524913
0.017387463 0.31993464 0.7635349
0.017381726 0.32192007 0.76328301
0.01729192 0.322337 0.75933939
0.017275963 0.32411778 0.75863862
0.017255936 0.32581794 0.75775921
0.017300995 0.32875001 0.75973791
0.017195951 0.32882261 0.75512511
0.017180953 0.33060265 0.75446647
0.017075922 0.33063579 0.74985427
0.017117653 0.33350304 0.75168681
0.017014336 0.33353689 0.74714983
0.017051559 0.33631787 0.74878442
0.017003756 0.33742049 0.74668521
0.017012333 0.33963725 0.74706185
0.016908104 0.3395904 0.74248481
0.016906317 0.34158835 0.74240643
0.016846841 0.34241331 0.73979467
0.016835254 0.344203 0.73928577
0.016766604 0.34481645 0.7362712
0.016797591 0.34747443 0.73763192
0.016811606 0.34978673 0.73824733
0.01682234 0.35203373 0.73871869
0.016783195 0.35323355 0.73699969
0.016788684 0.35536873 0.73724079
0.0265877 -0.10575981 1.0421734
0.026626289 -0.10305417 1.0436859
0.026591117 -0.10006268 1.0423073
0.0266489 -0.097418554 1.0445722
0.026612841 -0.094429038 1.0431588
0.026674492 -0.091783479 1.0455754
0.026558058 -0.08853104 1.0410115
0.026578799 -0.085746139 1.0418245
0.026562741 -0.082842022 1.041195
0.026609458 -0.080130391 1.0430262
0.02653412 -0.077054285 1.0400732
0.026508588 -0.074133635 1.0390724
0.026352482 -0.070867337 1.0329534
0.026306571 -0.067919061 1.0311538
0.026148403 -0.064702876 1.024954
0.026086858 -0.061749373 1.0225415
0.025829762 -0.058367204 1.012464
0.025807234 -0.055545107 1.0115809
0.02571081 -0.052576743 1.0078014
0.025758725 -0.049908746 1.0096796
0.025646318 -0.046937045 1.0052735
0.025607064 -0.04411551 1.0037348
0.025014244 -0.040408172 0.98049766
0.024151197 -0.036420636 0.94666833
0.023563176 -0.033003666 0.92361933
0.0234398 -0.030313887 0.91878331
0.023301084 -0.027632415 0.91334599
0.02327376 -0.02510087 0.91227496
0.023174381 -0.022505216 0.9083795
0.023174977 -0.020017261 0.90840286
0.023039591 -0.017426325 0.90309608
0.023039306 -0.014952141 0.90308487
0.022984587 -0.012448539 0.90094006
0.022998674 -0.0099865654 0.90149224
0.022870736 -0.0074751466 0.8964774
0.022846023 -0.0050138566 0.89550865
0.022755966 -0.002550551 0.89197868
0.02281937 -0.0001073075 0.89446396
0.022701347 0.0023309242 0.88983774
0.022722926 0.0047731334 0.89068359
0.022640362 0.0071869181 0.8874473
0.022697456 0.0096423011 0.88968521
0.022689812 0.012075491 0.88938558
0.02273567 0.01454126 0.89118314
0.022776082 0.017012808 0.89276719
0.022714205 0.019405646 0.89034176
0.022680111 0.021811914 0.88900536
0.022551104 0.024109391 0.88394862
0.022581475 0.026566664 0.88513905
0.022508711 0.028898049 0.88228685
0.022509089 0.031315565 0.88230169
0.022424534 0.033605881 0.87898737
0.022448318 0.036052033 0.87991965
0.022453465 0.038471356 0.88012135
0.022556243 0.041069549 0.88415003
0.022513151 0.043408558 0.88246089
0.022511905 0.045823492 0.88241208
0.022400942 0.048003037 0.87806255
0.022433242 0.050481144 0.87932867
0.022336602 0.052662186 0.87554061
0.022381464 0.055171285 0.87729913
0.022275439 0.057301875 0.8731432
0.022274457 0.059691183 0.87310469
0.022158019 0.061758481 0.86854059
0.022179097 0.064198829 0.86936682
0.022128042 0.066427156 0.86736554
0.022127278 0.068800896 0.86733562
0.021969208 0.070668474 0.86113971
0.0218722 0.072705068 0.85733718
0.021766637 0.074691474 0.85319936
0.021787027 0.07710094 0.8539986
0.021741981 0.079276189 0.85223293
0.021747509 0.081631601 0.8524496
0.021675043 0.08368706 0.84960914
0.021654081 0.085931338 0.84878743
0.02153785 0.087782845 0.84423149
0.021519097 0.090017132 0.84349638
0.021477137 0.092147827 0.84185165
0.021508034 0.094589934 0.84306276
0.021466278 0.096711345 0.84142601
0.021487843 0.099115871 0.84227133
0.02147639 0.10136919 0.84182239
0.021503145 0.10380448 0.84287113
0.021440305 0.10580339 0.84040797
0.021431601 0.10806177 0.84006679
0.021402037 0.11021087 0.83890796
0.021430068 0.11265638 0.84000671
0.021353029 0.11454429 0.83698696
0.021373484 0.1169491 0.83778876
0.021345157 0.11908615 0.83667839
0.021425242 0.12183361 0.83981752
0.021361696 0.12376607 0.83732665
0.021359775 0.12604856 0.83725137
0.021294119 0.12794767 0.83467782
0.021359641 0.13063498 0.83724612
0.021357616 0.13291597 0.83716673
0.021381419 0.13536006 0.83809978
0.021291191 0.1370751 0.83456302
0.021290477 0.13935669 0.83453506
0.021249389 0.14136949 0.83292449
0.021293294 0.14394806 0.83464545
0.021275122 0.14610976 0.83393317
0.021295648 0.14853746 0.83473772
0.021241978 0.15044408 0.83263403
0.021232098 0.15265402 0.83224678
0.021183677 0.15458058 0.83034873
0.021198733 0.15696676 0.83093888
0.021135775 0.15877017 0.82847112
0.021178581 0.16136588 0.83014899
0.021200612 0.16381027 0.83101255
0.021315953 0.16699038 0.83553368
0.02131697 0.16928737 0.83557349
0.021304825 0.17147864 0.83509749
0.021208091 0.17297739 0.83130574
0.021190872 0.17511243 0.83063078
0.021182796 0.1773203 0.83031422
0.02119231 0.17967558 0.83068717
0.021088211 0.18105744 0.82660669
0.02104301 0.18292896 0.82483494
0.020945344 0.18432906 0.82100666
0.020973787 0.18683155 0.82212156
0.020846365 0.18793496 0.81712693
0.020776059 0.1895321 0.81437117
0.020604787 0.19018219 0.80765772
0.02059667 0.19231895 0.80733949
0.020556219 0.19414857 0.80575395
0.020579342 0.19657677 0.80666029
0.020477027 0.19779828 0.8026498
0.020446219 0.19969621 0.80144221
0.020409405 0.20152822 0.79999918
0.020409921 0.20372494 0.80001938
0.020380193 0.20561662 0.79885411
0.020345263 0.2074489 0.79748499
0.020287758 0.20904106 0.79523093
0.020302583 0.21137391 0.79581201
0.020352259 0.21407653 0.79775923
0.020331297 0.21603921 0.79693753
0.020382851 0.21877572 0.7989583
0.020367661 0.2207998 0.79836291
0.020424338 0.22360738 0.8005845
0.020363795 0.22513121 0.79821134
0.020383995 0.22754338 0.79900318
0.020346116 0.22930533 0.79751843
0.020374516 0.23181321 0.79863161
0.020307334 0.23322944 0.79599828
0.02024859 0.23472907 0.79369563
0.020168073 0.23596133 0.79053956
0.020188333 0.23836619 0.79133368
0.020150689 0.24008551 0.78985816
0.020171106 0.24249476 0.79065841
0.020124579 0.24409641 0.78883469
0.020125208 0.2462651 0.78885937
0.02004751 0.24746703 0.78581375
0.020051422 0.24966845 0.78596711
0.020027719 0.25152391 0.78503805
0.020104414 0.25464588 0.78804427
0.020099783 0.25674555 0.78786272
0.020151103 0.25956494 0.78987437
0.020072574 0.26070878 0.78679621
0.020078292 0.26293907 0.78702033
0.020010717 0.26420292 0.78437161
0.020044239 0.26679784 0.78568554
0.020012848 0.26852903 0.78445512
0.020064494 0.27137652 0.78647947
0.020010499 0.27279496 0.78436303
0.020021614 0.27509639 0.78479868
0.019929441 0.27596998 0.78118575
0.019923717 0.27803013 0.78096139
0.019845426 0.27906862 0.77789259
0.019894574 0.281896 0.77981901
0.019864412 0.28360167 0.77863675
0.019867536 0.28577963 0.77875918
0.019772703 0.28653878 0.775042
0.019747959 0.28830072 0.77407211
0.019655744 0.28906509 0.77045745
0.019712625 0.29201838 0.77268708
0.019736009 0.29448402 0.77360368
0.019841885 0.29819444 0.77775377
0.019792356 0.29957539 0.77581233
0.019810095 0.30197111 0.77650768
0.019796321 0.30388689 0.77596778
0.019828051 0.30650312 0.77721155
0.019740498 0.30726942 0.77377963
0.01972013 0.30906996 0.77298123
0.019638252 0.30989546 0.76977181
0.019672617 0.31255022 0.77111888
0.019634973 0.31406054 0.76964331
0.019660508 0.31658015 0.77064425
0.019556357 0.31700301 0.76656175
0.019529894 0.3186712 0.76552451
0.019492382 0.32015219 0.76405412
0.019508777 0.32251635 0.76469678
0.019448722 0.32361189 0.76234269
0.019408425 0.3250255 0.76076323
0.019373165 0.32651532 0.75938112
0.019382795 0.32875896 0.75975859
0.019299457 0.32941779 0.7564919
0.019274177 0.33105594 0.75550097
0.019149201 0.33096561 0.75060225
0.019184968 0.33364385 0.75200421
0.019085433 0.33396226 0.74810272
0.019136686 0.336914 0.7501117
0.01905454 0.33751383 0.74689174
0.019057473 0.33961219 0.74700671
0.018957611 0.33986828 0.74309236
0.018939381 0.34157521 0.74237782
0.018854633 0.34207135 0.73905587
0.018853769 0.34408021 0.73902202
0.018784452 0.34483227 0.736305
0.018825635 0.34760976 0.73791921
0.018783314 0.34884527 0.73626035
0.018810097 0.35136253 0.73731017
0.018758699 0.35241675 0.73529553
0.018796936 0.3551535 0.73679429
0.029538879 -0.10610532 1.045578
0.02956536 -0.10333356 1.0465153
0.029512227 -0.1002861 1.0446346
0.029568857 -0.097611316 1.0466391
0.029511057 -0.094558895 1.0445932
0.029579118 -0.091908738 1.0470023
0.02944258 -0.088629507 1.0421693
0.029462891 -0.085833699 1.0428883
0.029417792 -0.082849734 1.041292
0.029466148 -0.080128647 1.0430036
0.029441835 -0.077207625 1.042143
0.029448865 -0.074370459 1.0423918
0.029283108 -0.071112342 1.0365245
0.029126804 -0.067908399 1.0309919
0.028926166 -0.064635709 1.02389
0.02884878 -0.061665393 1.0211508
0.028675484 -0.05851436 1.0150167
0.028646439 -0.05567731 1.0139886
0.028556671 -0.052733757 1.0108111
0.028594946 -0.050031647 1.0121659
0.028469535 -0.04705159 1.0077268
0.028398637 -0.044180661 1.0052172
0.027840264 -0.040612377 0.98545271
0.027053552 -0.036841426 0.95760572
0.026237508 -0.033185944 0.92872047
0.026025653 -0.030394331 0.92122149
0.025835501 -0.027667049 0.91449076
0.025844423 -0.025170526 0.91480654
0.025674723 -0.022515628 0.90879977
0.025569681 -0.019944075 0.90508163
0.025399681 -0.017348524 0.89906418
0.025458882 -0.014920265 0.90115964
0.025444621 -0.012444599 0.90065491
0.02544442 -0.0099772103 0.90064776
0.02530561 -0.0074689509 0.89573437
0.025288105 -0.0050116512 0.89511472
0.025205664 -0.0025511743 0.89219666
0.025268311 -0.00010730152 0.89441413
0.025187377 0.0023354075 0.89154929
0.02518188 0.0047767302 0.89135474
0.025080441 0.0071894838 0.8877641
0.025117539 0.009635712 0.88907725
0.025129007 0.012076817 0.88948321
0.025140069 0.014519911 0.88987476
0.025154972 0.016967742 0.89040232
0.025079241 0.019348539 0.88772166
0.025104478 0.021802336 0.88861495
0.02497644 0.024113052 0.88408285
0.025019219 0.026580412 0.88559711
0.024912871 0.028883174 0.88183272
0.024956128 0.031353265 0.88336384
0.024840567 0.033616818 0.87927341
0.024875427 0.03607611 0.88050729
0.024860147 0.038464587 0.8799665
0.024983888 0.041078676 0.88434649
0.024980158 0.043494817 0.88421446
0.024999226 0.045952138 0.88488936
0.024863996 0.048114572 0.88010269
0.024867533 0.050532769 0.88022792
0.024742143 0.052677158 0.87578952
0.024743162 0.055078615 0.87582558
0.024595048 0.057133842 0.87058282
0.024605604 0.059544317 0.87095648
0.02449657 0.061655838 0.86709708
0.024559179 0.064194873 0.86931324
0.024502978 0.066423967 0.86732388
0.024536707 0.068894669 0.86851776
0.024364842 0.070774719 0.86243433
0.024268717 0.072848774 0.8590318
0.02410638 0.074699029 0.85328561
0.024123112 0.077090032 0.85387784
0.024082851 0.079296634 0.85245275
0.024089992 0.081656106 0.85270554
0.02396475 0.083555393 0.84827238
0.023919266 0.085716203 0.8466624
0.02379268 0.087569706 0.84218168
0.023779865 0.089828417 0.84172809
0.02375078 0.092021607 0.84069854
0.023799721 0.094519041 0.84243089
0.023744598 0.096602581 0.84047973
0.023757102 0.098957129 0.84092236
0.023715751 0.10108455 0.83945864
0.023714982 0.10338086 0.83943141
0.02364634 0.10537457 0.83700174
0.023660317 0.10773113 0.83749646
0.023694115 0.11018261 0.83869278
0.023747435 0.11273329 0.84058017
0.023694908 0.11478157 0.83872086
0.023702316 0.11711583 0.83898312
0.023661453 0.11920831 0.83753669
0.023729239 0.1218508 0.83993608
0.02367525 0.1238693 0.83802503
0.023696387 0.12627769 0.83877325
0.023606829 0.12808953 0.83560318
0.023650123 0.13061774 0.83713561
0.023597112 0.13261312 0.8352592
0.023645185 0.13517612 0.83696085
0.023547173 0.1368991 0.8334915
0.023578944 0.13937022 0.83461612
0.023516819 0.14128339 0.83241713
0.023559917 0.14382686 0.83394265
0.023489576 0.14567517 0.83145279
0.023530571 0.14821114 0.83290392
0.0234816 0.15017964 0.8311705
0.023502629 0.15259314 0.83191484
0.023422018 0.15434094 0.82906145
0.023405716 0.15650311 0.82848442
0.023339733 0.15832514 0.82614887
0.02341816 0.16112794 0.82892489
0.023465414 0.16372846 0.83059752
0.023579022 0.16680756 0.83461893
0.023532219 0.16875832 0.83296221
0.023516569 0.17092644 0.83240825
0.023404226 0.17237936 0.82843173
0.023428166 0.17482747 0.82927912
0.02338792 0.17679501 0.82785451
0.023423083 0.17933209 0.82909918
0.023278384 0.18048149 0.82397729
0.023274168 0.18270567 0.8238281
0.023165636 0.1841 0.8199864
0.023183111 0.18648688 0.82060498
0.023005817 0.18729155 0.81432939
0.022905594 0.18869673 0.81078178
0.022757594 0.18968424 0.80554307
0.022786802 0.1921373 0.80657697
0.022790706 0.19438018 0.80671513
0.022853553 0.19713224 0.8089397
