# .PCD v0.7 - Point Cloud Data file format
VERSION 0.7
FIELDS x y z
SIZE 4 4 4
TYPE F F F
COUNT 1 1 1
WIDTH 1426
HEIGHT 1
VIEWPOINT 0 0 0 1 0 0 0
POINTS 1426
DATA ascii
0.20386951 0.23608881 0.70665306
0.20391838 0.23808175 0.70682251
0.20422566 0.24037974 0.70788759
0.20405853 0.24212067 0.70730829
0.20492925 0.24509971 0.71032637
0.20434713 0.24634387 0.70830864
0.20478 0.24881017 0.70980901
0.20392638 0.24970941 0.70685023
0.20524478 0.25327271 0.71142006
0.20483564 0.25471285 0.71000189
0.20565243 0.25768131 0.71283305
0.26820484 -0.26248085 0.92090786
0.26879725 -0.26053226 0.92294198
0.26777595 -0.25702363 0.91943532
0.26834735 -0.25504792 0.92139721
0.26749462 -0.25172135 0.91846931
0.26793823 -0.2496185 0.91999245
0.26752859 -0.24672045 0.9185859
0.26789895 -0.24454208 0.91985756
0.26790741 -0.24202983 0.91988665
0.26911911 -0.24059309 0.92404711
0.26997006 -0.23881444 0.92696893
0.27147642 -0.23759341 0.93214118
0.27187651 -0.23538624 0.93351495
0.27274466 -0.23357236 0.93649584
0.27284899 -0.23109524 0.93685406
0.27450299 -0.22991408 0.9425332
0.27540669 -0.22808048 0.94563621
0.27743354 -0.22714941 0.95259553
0.27691928 -0.22412358 0.95082974
0.27736688 -0.22187689 0.95236665
0.27657074 -0.21863854 0.949633
0.27686125 -0.21626399 0.95063055
0.27583605 -0.21286862 0.94711041
0.27534065 -0.20989637 0.94540942
0.27394137 -0.20625292 0.94060481
0.27362639 -0.20344199 0.93952328
0.27267048 -0.20016648 0.93624109
0.27202067 -0.19713078 0.93400997
0.27023622 -0.19329572 0.92788291
0.270055 -0.19062588 0.92726064
0.26944938 -0.1876639 0.92518121
0.26936024 -0.18506816 0.92487514
0.26794463 -0.18157518 0.92001444
0.26749465 -0.17875414 0.91846937
0.2664564 -0.17555396 0.91490442
0.26565191 -0.17252515 0.91214216
0.26498112 -0.16959706 0.90983897
0.26219156 -0.16534542 0.90026075
0.26146114 -0.16242543 0.89775276
0.25986373 -0.15898876 0.89226788
0.25899071 -0.15601848 0.88927025
0.2575559 -0.15273152 0.88434368
0.25815725 -0.15065984 0.88640851
0.25734967 -0.14776786 0.88363558
0.2576957 -0.14554261 0.88482374
0.25641912 -0.14240968 0.88044047
0.25612041 -0.13983466 0.87941486
0.25588062 -0.13729687 0.87859148
0.25585619 -0.13487712 0.87850755
0.25509048 -0.13207404 0.87587845
0.25443941 -0.12934364 0.87364292
0.25413004 -0.12679596 0.87258071
0.25431243 -0.12449485 0.87320697
0.25333863 -0.12163518 0.86986333
0.25328597 -0.11922744 0.86968249
0.25274333 -0.11659466 0.86781931
0.25268877 -0.11419264 0.86763197
0.2503674 -0.11078857 0.85966128
0.24906772 -0.10787068 0.85519874
0.24736665 -0.10480716 0.8493579
0.24820708 -0.10282855 0.8522436
0.24655111 -0.0998234 0.84655768
0.24678811 -0.097598016 0.84737146
0.24464741 -0.09445022 0.84002113
0.24479522 -0.09220469 0.84052867
0.2428138 -0.089174405 0.83372521
0.24316067 -0.087014571 0.83491623
0.24237312 -0.084452942 0.83221215
0.24294372 -0.082366578 0.83417135
0.24040437 -0.079244345 0.82545221
0.2399624 -0.076841526 0.82393467
0.23814294 -0.074018873 0.81768739
0.23760463 -0.071616597 0.81583905
0.23511972 -0.068656027 0.80730683
0.23484328 -0.066366322 0.80635768
0.23393676 -0.06390968 0.80324507
0.23444566 -0.061843466 0.80499244
0.23398036 -0.059519857 0.80339473
0.23282206 -0.05703523 0.79941761
0.22979599 -0.054132417 0.78902733
0.22815447 -0.051599655 0.783391
0.22809035 -0.049439687 0.78317082
0.22784701 -0.047243766 0.78233528
0.22713934 -0.04496051 0.77990544
0.22591271 -0.042592723 0.77569366
0.22392038 -0.040110856 0.76885283
0.22400178 -0.038018428 0.76913232
0.22346076 -0.035824686 0.76727468
0.2251904 -0.033983786 0.77321357
0.22415309 -0.031718813 0.76965183
0.22467789 -0.029679706 0.7714538
0.22354825 -0.02742774 0.76757509
0.22376375 -0.02534941 0.76831502
0.22287965 -0.023152798 0.76527935
0.22334631 -0.021100434 0.7668817
0.2223794 -0.018917337 0.76356173
0.22256967 -0.016839987 0.76421505
0.22180422 -0.014695733 0.76158679
0.22230718 -0.012637987 0.76331371
0.22150382 -0.010508805 0.76055533
0.22245088 -0.0084613161 0.76380718
0.22209491 -0.0063587031 0.76258487
0.2234413 -0.0042955144 0.76720786
0.22270049 -0.0021865042 0.76466423
0.22361991 -9.2114351e-05 0.76782113
0.22307435 0.0020063955 0.76594788
0.22408849 0.0041233413 0.76943004
0.22272038 0.0061931228 0.76473254
0.22334941 0.0083114859 0.76689231
0.22250773 0.01037312 0.76400232
0.22318734 0.012504151 0.76633584
0.2223189 0.014546676 0.763354
0.22210027 0.016621493 0.76260328
0.22197773 0.018700292 0.76218253
0.22193676 0.020784426 0.76204187
0.22269276 0.022949921 0.76463765
0.22289997 0.025067922 0.76534915
0.22253941 0.027120622 0.7641111
0.2216541 0.029097658 0.76107132
0.22161749 0.031177433 0.76094562
0.22127584 0.033210739 0.75977254
0.22176689 0.035370424 0.76145858
0.22179209 0.03746067 0.76154512
0.22219299 0.039618373 0.76292163
0.22170065 0.041615952 0.76123118
0.22146766 0.043655388 0.76043117
0.22109012 0.045660589 0.75913483
0.2212642 0.047777798 0.75973254
0.22137247 0.049883455 0.7601043
0.22142877 0.051978946 0.7602976
0.22196926 0.054193713 0.76215345
0.22195747 0.05627862 0.76211298
0.22134702 0.058205869 0.76001692
0.2205907 0.060081907 0.75742
0.2207225 0.062193971 0.75787258
0.22108164 0.064374708 0.75910574
0.2211879 0.066486195 0.75947058
0.22071385 0.068419784 0.7578429
0.22034721 0.070378758 0.75658399
0.22031836 0.072441906 0.75648493
0.22001871 0.074412927 0.75545609
0.22088847 0.076784804 0.75844246
0.22037724 0.078680016 0.7566871
0.22063142 0.080846064 0.75755984
0.22026509 0.082783684 0.756302
0.22076437 0.085047901 0.75801635
0.22082508 0.087148413 0.75822479
0.22134216 0.089434467 0.76000023
0.22093338 0.091347449 0.75859666
0.22161858 0.09371534 0.76094937
0.22073093 0.095416225 0.75790155
0.22119911 0.097699247 0.75950909
0.22016218 0.099312156 0.75594866
0.22011571 0.10136165 0.7557891
0.21887249 0.10284792 0.7515204
0.21867643 0.1048127 0.75084722
0.21829654 0.10668397 0.74954283
0.21857668 0.10887686 0.75050473
0.2186185 0.11095405 0.75064826
0.21933685 0.11338177 0.75311482
0.21935359 0.11545371 0.75317228
0.21923906 0.11745562 0.75277901
0.21812563 0.11891086 0.74895597
0.2180652 0.12092908 0.74874848
0.21663341 0.12217278 0.74383229
0.21612544 0.12391923 0.74208814
0.21468514 0.12511279 0.73714274
0.2150519 0.12734933 0.73840201
0.21470343 0.12916252 0.73720551
0.2151811 0.13147393 0.73884565
0.2140836 0.13281709 0.73507726
0.21307047 0.13419272 0.73159856
0.21221504 0.1356501 0.72866136
0.21030869 0.13640974 0.7221157
0.20925026 0.1376915 0.71848148
0.20847002 0.139139 0.71580249
0.20862828 0.14120702 0.71634591
0.20817609 0.14285912 0.71479326
0.20845281 0.14500976 0.71574336
0.20802459 0.14666858 0.71427304
0.20819657 0.14874819 0.71486354
0.20780936 0.15042625 0.71353406
0.20870966 0.15304111 0.71662527
0.20878817 0.15506259 0.71689487
0.2091026 0.15726297 0.71797448
0.20822993 0.15856531 0.7149781
0.20810728 0.16042942 0.71455699
0.207744 0.16210344 0.71330965
0.20803441 0.16428687 0.71430677
0.20752244 0.16583455 0.71254885
0.20730294 0.1676091 0.71179521
0.20675625 0.16911188 0.70991808
0.2069792 0.17124112 0.71068358
0.20685607 0.17308497 0.71026081
0.20752189 0.17559409 0.71254694
0.20699985 0.17709945 0.71075451
0.20733152 0.17933343 0.71189332
0.20682548 0.18084116 0.71015579
0.207148 0.18307164 0.71126318
0.2072112 0.18507658 0.7114802
0.20779289 0.18755066 0.71347749
0.20722747 0.18898955 0.71153605
0.20674551 0.1904947 0.70988119
0.20596987 0.19171743 0.70721799
0.20654044 0.19419128 0.70917708
0.2063292 0.19593346 0.70845175
0.20629174 0.19783831 0.70832312
0.20525877 0.19877838 0.70477635
0.20555034 0.20099418 0.70577747
0.20527038 0.20265125 0.70481622
0.20625523 0.2055636 0.70819777
0.20619936 0.20744748 0.70800596
0.20781742 0.21103011 0.71356171
0.20782624 0.21299392 0.71359199
0.20830128 0.21544009 0.71522307
0.20730159 0.21635607 0.71179056
0.20803091 0.21907404 0.71429473
0.20728315 0.22023635 0.71172726
0.20729665 0.22220057 0.71177363
0.20660143 0.22339869 0.70938647
0.20703676 0.22581685 0.71088123
0.20692323 0.22763938 0.71049142
0.20712681 0.22981162 0.71119046
0.20631272 0.23084898 0.70839518
0.20606515 0.23251025 0.7075451
0.20544294 0.23374064 0.70540869
0.20643064 0.23680612 0.70880008
0.20665552 0.23900795 0.7095722
0.20679787 0.24111776 0.71006095
0.20602041 0.24214916 0.7073915
0.2066734 0.24486066 0.70963359
0.20587471 0.24585091 0.70689124
0.20637365 0.24838792 0.7086044
0.2053695 0.2491111 0.70515656
0.20664914 0.25260708 0.70955032
0.20664074 0.2545405 0.70952147
0.20745394 0.25749356 0.71231365
0.27093339 -0.26268035 0.92160779
0.27139503 -0.26059893 0.92317808
0.27014813 -0.25688425 0.91893667
0.27093032 -0.25510332 0.92159736
0.27014053 -0.25184235 0.91891086
0.27090624 -0.25003174 0.92151546
0.27055764 -0.24718881 0.92032969
0.27101779 -0.2450837 0.92189491
0.27028465 -0.24190207 0.91940111
0.27113208 -0.24013396 0.92228371
0.27138141 -0.23782589 0.92313182
0.27329397 -0.23695526 0.92963755
0.27343094 -0.23452605 0.93010354
0.27485231 -0.23318392 0.93493837
0.27499059 -0.23073873 0.93540877
0.27653158 -0.22945487 0.94065064
0.27719173 -0.2274196 0.94289619
0.2795299 -0.22673312 0.95084977
0.27955741 -0.22415036 0.95094335
0.28026262 -0.22210415 0.95334214
0.27932313 -0.21875675 0.95014644
0.2797949 -0.21651892 0.95175117
0.27864268 -0.21303074 0.94783175
0.27835602 -0.21021768 0.94685668
0.27696607 -0.20658705 0.94212854
0.27627689 -0.2034985 0.93978423
0.27481014 -0.19985729 0.93479496
0.27415705 -0.19682758 0.93257338
0.27282572 -0.19332944 0.9280448
0.2729184 -0.1908519 0.92836004
0.27211675 -0.18775557 0.92563313
0.2718893 -0.18506502 0.92485946
0.27009809 -0.18132889 0.9187665
0.26966736 -0.1785268 0.9173013
0.26868957 -0.17537567 0.91397524
0.26824197 -0.17258389 0.9124527
0.26708728 -0.16935211 0.90852493
0.26479989 -0.1654342 0.90074414
0.26401269 -0.16248217 0.89806634
0.26234344 -0.1590102 0.89238822
0.26155198 -0.15609318 0.88969594
0.2605781 -0.15308376 0.88638318
0.26096681 -0.15088028 0.88770545
0.25967541 -0.14771387 0.8833127
0.25967354 -0.14529301 0.88330626
0.25874493 -0.1423623 0.88014752
0.25870252 -0.13992822 0.88000321
0.25860488 -0.1374656 0.87967116
0.25828108 -0.13488667 0.87856972
0.25746983 -0.13206375 0.87581015
0.25685838 -0.12935656 0.87373024
0.25671285 -0.12689106 0.87323517
0.25726879 -0.1247685 0.8751263
0.25618055 -0.12185349 0.8714245
0.2566261 -0.11967404 0.87294012
0.25575268 -0.11688349 0.86996907
0.25596923 -0.11459719 0.87070566
0.25396204 -0.111332 0.86387801
0.25331575 -0.10868814 0.86167955
0.25149632 -0.1055639 0.85549057
0.25165606 -0.10328589 0.85603398
0.24942003 -0.10004393 0.84842789
0.24914631 -0.097612455 0.84749681
0.24698322 -0.09446346 0.84013885
0.24680744 -0.092096329 0.8395409
0.24524643 -0.089228496 0.83423096
0.2458564 -0.087159395 0.83630586
0.24517941 -0.084634677 0.83400303
0.24536693 -0.082412936 0.83464086
0.24290784 -0.079323433 0.826276
0.24231683 -0.076872393 0.82426566
0.24018869 -0.073959053 0.81702656
0.23904741 -0.071380049 0.81314439
0.23650523 -0.068417057 0.80449688
0.23622948 -0.066135973 0.80355889
0.23530073 -0.063683286 0.80039966
0.23573223 -0.061603386 0.80186743
0.23499744 -0.059221532 0.79936796
0.23474066 -0.056969371 0.79849452
0.23279729 -0.054328401 0.79188395
0.23165621 -0.051903397 0.78800243
0.23082833 -0.049566925 0.78518635
0.23055549 -0.047359891 0.78425825
0.22924058 -0.044953596 0.77978545
0.22770014 -0.04252968 0.77454549
0.22542308 -0.04000375 0.76679981
0.22581013 -0.037968215 0.76811641
0.22557957 -0.035827368 0.76733214
0.22731979 -0.033985462 0.77325165
0.22575791 -0.031648215 0.76793879
0.22611518 -0.029591231 0.76915407
0.22532049 -0.027387567 0.76645082
0.22574754 -0.025335832 0.76790351
0.22503082 -0.023158431 0.7654655
0.22545272 -0.021100955 0.76690066
0.22422822 -0.018896865 0.76273537
0.224692 -0.016842144 0.76431298
0.22366059 -0.014680639 0.76080453
0.22436319 -0.012636012 0.7631945
0.22315887 -0.010488667 0.75909787
0.22467193 -0.0084661627 0.76424468
0.22405736 -0.0063551115 0.76215416
0.22539361 -0.0042926683 0.76669955
0.22444664 -0.0021831132 0.76347834
0.22566573 -9.2090842e-05 0.76762521
0.22496365 0.0020045335 0.76523703
0.22599031 0.0041195862 0.76872933
0.22489728 0.0061953799 0.76501125
0.22593643 0.0083294092 0.76854604
0.22497897 0.010390592 0.76528913
0.2250258 0.012489672 0.76544845
0.22352538 0.014489327 0.76034456
0.22298253 0.016532015 0.75849801
0.22315305 0.018624123 0.75907809
0.22395307 0.020777812 0.7617994
0.22435357 0.022905624 0.76316178
0.22454828 0.025017971 0.76382411
0.22432899 0.027083959 0.76307815
0.22401884 0.029134048 0.76202315
0.22408538 0.031230856 0.76224947
0.22370251 0.033262081 0.76094711
0.22439538 0.035456143 0.763304
0.22392951 0.037469234 0.76171929
0.22415209 0.039595254 0.76247638
0.22353299 0.041568898 0.76037049
0.22345728 0.043637119 0.76011294
0.22305299 0.045636706 0.75873774
0.22322059 0.047751088 0.7593078
0.2236554 0.049928252 0.76078689
0.22386307 0.05206069 0.76149327
0.2241623 0.054219145 0.76251113
0.22356573 0.056158166 0.76048183
0.22276078 0.058031775 0.75774372
0.22223102 0.059964638 0.75594169
0.22236012 0.062071554 0.75638086
0.22276099 0.064259268 0.75774443
0.22246169 0.066245951 0.75672632
0.22262006 0.068367608 0.75726503
0.22223939 0.070321657 0.75597018
0.22261925 0.072516344 0.75726229
0.22225159 0.074467652 0.75601166
0.22289625 0.076760717 0.75820452
0.22245161 0.07868053 0.75669205
0.22255065 0.08078941 0.75702894
0.22208589 0.082690217 0.75544804
0.22242382 0.084888712 0.75659752
0.22236726 0.08693926 0.75640512
0.2229864 0.089259237 0.75851119
0.22306104 0.091367729 0.7587651
0.22384155 0.093773313 0.76142007
0.22301023 0.095503181 0.75859225
0.22317944 0.097655356 0.75916785
0.22246239 0.099414639 0.75672871
0.22290763 0.10169078 0.75824326
0.22164036 0.10317802 0.75393254
0.22097822 0.10492898 0.75168014
0.22064109 0.10682496 0.7505334
0.22077303 0.10894612 0.75098217
0.22096223 0.11109854 0.75162578
0.22147298 0.11341915 0.75336313
0.22127643 0.11538047 0.75269455
0.22134137 0.11747691 0.75291544
0.22075173 0.11922105 0.75090975
0.22073233 0.12126749 0.75084376
0.21953081 0.1226531 0.74675661
0.21850067 0.12411366 0.74325252
0.21694505 0.12525165 0.73796093
0.21652788 0.12702852 0.73654187
0.21598703 0.12872392 0.73470211
0.21674474 0.13119525 0.73727953
0.2164425 0.13302924 0.73625141
0.21609879 0.13483171 0.73508227
0.21485321 0.13605668 0.73084533
0.21295619 0.13683982 0.72439241
0.21152006 0.13788809 0.71950728
0.21095097 0.13948286 0.71757144
0.21101855 0.14149393 0.71780133
0.21107966 0.14350185 0.71800917
0.21095718 0.14538442 0.7175926
0.21012028 0.14676566 0.71474576
0.20999278 0.14863345 0.71431208
0.20986485 0.15049854 0.7138769
0.21049757 0.15291381 0.71602917
0.21089572 0.15516828 0.7173835
0.21149933 0.15758325 0.71943676
0.21087275 0.15908144 0.71730536
0.21031712 0.16062213 0.71541536
0.20954028 0.16198146 0.71277285
0.20996812 0.16426879 0.71422815
0.20977303 0.16607095 0.71356457
0.21003219 0.16823331 0.71444613
0.20952569 0.16978009 0.7127232
0.2091008 0.17138432 0.7112779
0.20860617 0.17292282 0.70959538
0.20912097 0.17529826 0.71134651
0.20920105 0.17731483 0.7116189
0.2092988 0.17934807 0.71195143
0.20911565 0.18113978 0.71132845
0.20906903 0.18304762 0.71116984
0.20950809 0.18538435 0.71266335
0.20976916 0.1875701 0.7135514
0.20944017 0.18922761 0.71243232
0.20856908 0.19038413 0.7094692
0.20802787 0.19182862 0.70762819
0.20863424 0.19433196 0.70969087
0.20801857 0.19569695 0.7075966
0.20787701 0.19750088 0.70711505
0.20696014 0.19855835 0.70399624
0.20697805 0.20050427 0.70405716
0.20630293 0.2017727 0.70176065
0.20704119 0.20442408 0.70427191
0.20800708 0.20731609 0.7075575
0.20950401 0.21076033 0.71264946
0.2098026 0.21301575 0.71366513
0.21037318 0.21555544 0.71560603
0.20994632 0.21707445 0.71415401
0.20979023 0.21886803 0.71362305
0.20863189 0.21960372 0.70968282
0.20864876 0.22156578 0.70974022
0.20836736 0.22320865 0.70878303
0.20876707 0.22558223 0.71014267
0.20843989 0.22717105 0.70902973
0.20898986 0.22971794 0.71090055
0.20833467 0.23093913 0.70867181
0.20800313 0.23250993 0.70754409
0.20748158 0.23386034 0.70576996
0.208242 0.23665796 0.70835662
0.20878382 0.23921929 0.71019965
0.20921612 0.2416642 0.71167016
0.20840834 0.24267322 0.70892245
0.2088339 0.24511476 0.71037
0.20787571 0.24592721 0.70711064
0.20816495 0.24820918 0.70809448
0.20766582 0.24954918 0.70639664
0.20842342 0.2524018 0.70897371
0.20862615 0.25459141 0.70966333
0.20881175 0.2567637 0.71029466
0.27331793 -0.26254573 0.92113549
0.27412611 -0.26079115 0.92385912
0.2732017 -0.2573894 0.92074376
0.27357325 -0.25521362 0.92199588
0.27276602 -0.25194228 0.9192754
0.27367982 -0.25025955 0.92235506
0.27330136 -0.24739021 0.92107958
0.27356786 -0.24510573 0.92197776
0.27236089 -0.24150977 0.91791004
0.27285981 -0.23943298 0.91959149
0.27284929 -0.23690467 0.91955602
0.27431506 -0.23564473 0.924496
0.27452171 -0.23328771 0.92519242
0.27626765 -0.23222074 0.93107659
0.27719164 -0.23043823 0.93419057
0.27946594 -0.22974877 0.94185549
0.28016225 -0.2277346 0.94420213
0.28214997 -0.22674538 0.95090115
0.28212222 -0.2241184 0.95080769
0.28299436 -0.22219846 0.95374691
0.2822257 -0.21898927 0.95115638
0.28275058 -0.21678604 0.95292532
0.28108245 -0.21291199 0.94730341
0.28113651 -0.21035731 0.94748557
0.2798956 -0.20684467 0.94330347
0.27968675 -0.20410813 0.94259965
0.27791503 -0.20024931 0.93662858
0.2768586 -0.19693202 0.93306822
0.27567142 -0.19354242 0.92906719
0.27538854 -0.19080128 0.92811382
0.27462253 -0.18773508 0.92553216
0.2745837 -0.18517344 0.92540127
0.27292657 -0.18153611 0.91981643
0.27239195 -0.17866565 0.91801471
0.27108982 -0.1753087 0.91362625
0.27104554 -0.17277764 0.913477
0.26963642 -0.16938996 0.908728
0.26884177 -0.16640867 0.90604991
0.26749125 -0.1631031 0.90149838
0.26526916 -0.15929909 0.89400953
0.26480198 -0.15657373 0.89243495
0.26360705 -0.15343343 0.88840783
0.26390433 -0.15116996 0.88940972
0.26208052 -0.14770557 0.88326311
0.26206034 -0.14527473 0.8831951
0.2613712 -0.14247957 0.88087255
0.26145002 -0.14010869 0.88113821
0.2608338 -0.1373703 0.8790614
0.26060659 -0.1348446 0.87829572
0.25966984 -0.13196249 0.87513864
0.25944069 -0.12945075 0.8743664
0.25847912 -0.12658453 0.8711257
0.25941277 -0.12464674 0.87427229
0.25817734 -0.12166949 0.87010866
0.2594429 -0.1198706 0.87437385
0.25833103 -0.11697183 0.87062663
0.25894555 -0.11485936 0.87269771
0.2574805 -0.11183231 0.86776018
0.25742292 -0.10943064 0.86756611
0.25514096 -0.10610498 0.85987544
0.25477844 -0.10360197 0.85865366
0.25207064 -0.10017364 0.8495279
0.25157326 -0.097653322 0.84785163
0.24951212 -0.094549619 0.84090513
0.24942325 -0.092213131 0.84060562
0.24805851 -0.089418374 0.83600622
0.24862379 -0.087326713 0.83791131
0.24742706 -0.084621996 0.8338781
0.24764393 -0.082409792 0.83460897
0.24549012 -0.079426557 0.8273502
0.24502148 -0.07701277 0.8257708
0.24196532 -0.073818237 0.81547093
0.24059382 -0.071178526 0.81084871
0.23847301 -0.068349391 0.80370116
0.23866476 -0.066200867 0.8043474
0.23729663 -0.063630521 0.7997365
0.23741901 -0.061471365 0.80014896
0.23628262 -0.058995657 0.79631913
0.23674551 -0.056925468 0.79787916
0.23543698 -0.054437153 0.79346913
0.23495427 -0.052156318 0.79184228
0.23351428 -0.04968074 0.78698927
0.23300602 -0.04742137 0.78527629
0.23137455 -0.04495316 0.77977794
0.23001528 -0.042565446 0.77519691
0.22807661 -0.040100962 0.76866323
0.22818115 -0.038012657 0.76901555
0.22779493 -0.035845194 0.7677139
0.22894093 -0.033911821 0.77157617
0.2278627 -0.03164836 0.76794231
0.22786584 -0.02954502 0.76795292
0.2270135 -0.027338596 0.76508033
0.22756538 -0.025304053 0.7669403
0.22731259 -0.023177275 0.76608837
0.22797039 -0.021139603 0.76830524
0.22653341 -0.018914877 0.76346236
0.22692609 -0.016852561 0.76478577
0.2259119 -0.014691507 0.76136774
0.22678719 -0.012654608 0.76431763
0.22543246 -0.010497703 0.75975192
0.22688946 -0.0084707886 0.76466233
0.22606671 -0.0063529043 0.76188946
0.22722532 -0.0042875996 0.76579422
0.22646487 -0.0021824068 0.76323134
0.22789927 -9.2143673e-05 0.76806557
0.22710145 0.0020048993 0.76537675
0.2277067 0.0041125515 0.7674166
0.22677648 0.0061894706 0.76428157
0.22811145 0.0083319517 0.76878065
0.22753252 0.010411507 0.76682955
0.22711153 0.012489056 0.76541072
0.22553019 0.01448431 0.76008129
0.22487009 0.016518036 0.75785661
0.22538956 0.01863711 0.75960732
0.22605015 0.020778747 0.76183367
0.22622119 0.022883063 0.7624101
0.22606236 0.024954123 0.76187479
0.22598669 0.027032198 0.76161981
0.22571449 0.029083554 0.76070243
0.22595054 0.031200064 0.76149797
0.22499026 0.033144694 0.75826162
0.22564703 0.035324741 0.7604751
0.22488053 0.037280962 0.75789183
0.22564626 0.039491192 0.76047248
0.22499013 0.041453585 0.7582612
0.225409 0.043611858 0.75967288
0.22498995 0.045608006 0.75826061
0.22576234 0.047848929 0.76086366
0.22577247 0.049935531 0.76089782
0.22626871 0.05213432 0.76257026
0.22578439 0.054107286 0.76093799
0.22536486 0.056087442 0.75952411
0.22445357 0.057932917 0.75645286
0.22457829 0.060038529 0.75687319
0.22474863 0.062159073 0.7574473
0.22505334 0.064321153 0.75847423
0.22415952 0.066135257 0.75546187
0.22431941 0.068253472 0.75600076
0.22397572 0.070216753 0.7548424
0.22487679 0.07257542 0.7578792
0.22459713 0.074558765 0.75693667
0.22515967 0.0768243 0.75883257
0.22421172 0.07857091 0.75563782
0.22463807 0.08079429 0.75707471
0.22419885 0.082706235 0.75559443
0.22474082 0.084981099 0.75742096
0.22421871 0.08685378 0.75566137
0.22472286 0.089123823 0.75736046
0.224939 0.091286302 0.75808889
0.22587894 0.093753181 0.76125664
0.22519432 0.095548138 0.75894934
0.22542898 0.097728983 0.75974023
0.22461821 0.099451296 0.75700778
0.22511804 0.10175101 0.75869226
0.2239418 0.10328691 0.75472814
0.22331865 0.10506129 0.75262797
0.22309089 0.10701383 0.75186038
0.22336105 0.10920561 0.75277084
0.22354792 0.11136089 0.75340068
0.22358771 0.11344498 0.75353473
0.22299841 0.11520483 0.75154871
0.22305687 0.1172944 0.7517457
0.22307894 0.11936559 0.75182009
0.22327864 0.12153389 0.75249314
0.2228297 0.1233468 0.75098014
0.221775 0.12481051 0.74742556
0.21984945 0.12575662 0.7409361
0.21863872 0.12708265 0.73685569
0.21765235 0.1285188 0.73353142
0.21837804 0.13096349 0.73597711
0.21815257 0.13284238 0.73521727
0.21823993 0.13491049 0.73551172
0.21659923 0.135896 0.7299822
0.21557029 0.13724069 0.72651446
0.21477215 0.13871546 0.72382456
0.21435758 0.14042677 0.72242743
0.21404608 0.14219888 0.72137755
0.21338223 0.14372791 0.71914029
0.21279594 0.14529766 0.7171644
0.2118182 0.14658567 0.71386921
0.21210246 0.14874063 0.71482718
0.21187159 0.15053485 0.71404916
0.21256119 0.15298727 0.71637321
0.21226411 0.15473318 0.71537197
0.21326895 0.1574347 0.71875852
0.21256131 0.15887481 0.71637362
0.2122487 0.16060074 0.71532005
0.2108763 0.16150922 0.71069479
0.21159537 0.1640135 0.7131182
0.21159843 0.16596946 0.71312851
0.2124245 0.16857861 0.71591252
0.21154374 0.16983274 0.71294421
0.21114355 0.17146084 0.71159548
0.21034341 0.17275308 0.70889884
0.21141452 0.17558466 0.71250868
0.21101967 0.17720497 0.71117795
0.2114929 0.17955498 0.71277285
0.21105498 0.18113177 0.71129698
0.21164411 0.18359138 0.71328247
0.21161401 0.18551901 0.71318102
0.2122733 0.18805681 0.71540296
0.21153778 0.18935823 0.71292412
0.21090068 0.19073509 0.71077698
0.2096711 0.19155885 0.70663303
0.20987701 0.19368468 0.70732701
0.20904443 0.19484635 0.704521
0.20917191 0.19689634 0.70495063
0.20838235 0.19807704 0.7022897
0.20860158 0.20021135 0.70302856
0.20779026 0.20135106 0.7002942
0.20911157 0.20456207 0.70474732
0.20987813 0.20724966 0.70733076
0.21146269 0.2107667 0.71267104
0.21115121 0.2124057 0.71162128
0.21153924 0.21474907 0.71292901
0.21130912 0.21646638 0.71215349
0.21163288 0.21875197 0.71324462
0.21087308 0.2199135 0.71068394
0.21087635 0.22186384 0.71069497
0.2101686 0.22305959 0.70830971
0.21061149 0.22547412 0.70980233
0.21038446 0.22717345 0.70903718
0.21108283 0.22987638 0.71139085
0.20958246 0.23017739 0.70633429
0.20954663 0.23207268 0.70621353
0.20906354 0.23346785 0.70458543
0.21038181 0.23688234 0.70902824
0.21035409 0.23879327 0.70893484
0.21096699 0.24143678 0.71100044
0.21022426 0.24252768 0.70849729
0.21070896 0.24503224 0.71013081
0.20998308 0.24612679 0.70768446
0.20995298 0.24802989 0.70758301
0.20976187 0.24974078 0.70693898
0.21034168 0.25237304 0.708893
0.21097794 0.25508431 0.71103734
0.21068095 0.25667036 0.7100364
0.27594835 -0.26264757 0.92149276
0.27678147 -0.26090851 0.92427486
0.27587259 -0.25752807 0.92123973
0.27628574 -0.25538623 0.92261946
0.27547219 -0.25211421 0.91990274
0.27643442 -0.25046599 0.92311591
0.27561697 -0.24720398 0.9203862
0.27595556 -0.2449832 0.92151684
0.27460912 -0.24127573 0.91702056
0.27515647 -0.23923948 0.91884834
0.27475038 -0.23637298 0.91749227
0.27612549 -0.23503001 0.92208433
0.2762962 -0.23264773 0.92265433
0.2787677 -0.23217861 0.93090767
0.2798987 -0.23056003 0.9346844
0.28244805 -0.23007618 0.94319767
0.28283221 -0.22780173 0.94448048
0.28462094 -0.22663867 0.9504537
0.28482023 -0.22419181 0.95111918
0.2856532 -0.22223431 0.95390081
0.28514755 -0.21923237 0.95221221
0.28555369 -0.21693239 0.95356858
0.28410614 -0.21323366 0.94873464
0.28388083 -0.21046759 0.94798225
0.28294253 -0.20718355 0.9448489
0.28268799 -0.20441112 0.94399887
0.28085586 -0.20051703 0.93788075
0.27964544 -0.19709463 0.93383873
0.27877566 -0.19393136 0.93093419
0.27869424 -0.1913252 0.93066233
0.27762496 -0.1880514 0.9270916
0.2773208 -0.18530843 0.92607588
0.27559742 -0.18163568 0.92032093
0.2748664 -0.17863938 0.91787976
0.2737835 -0.17543098 0.91426355
0.27418172 -0.17317791 0.91559333
0.27315524 -0.17003074 0.91216552
0.27241433 -0.16707748 0.90969133
0.26996666 -0.16310661 0.90151769
0.26725447 -0.15902311 0.8924607
0.26741913 -0.15667471 0.89301062
0.26665822 -0.15378951 0.89046961
0.26710829 -0.15160555 0.89197254
0.26524055 -0.14811902 0.88573545
0.26529154 -0.14572059 0.88590574
0.26471734 -0.14298354 0.88398832
0.26425999 -0.14031903 0.88246107
0.26300719 -0.13724782 0.87827754
0.26288319 -0.13477822 0.87786335
0.26202855 -0.131943 0.87500942
0.26246431 -0.1297614 0.87646466
0.26134294 -0.1268162 0.87271994
0.26222897 -0.12484725 0.87567866
0.2608135 -0.12178741 0.87095195
0.26198551 -0.11993803 0.87486577
0.26089665 -0.11705285 0.87122965
0.261399 -0.11488693 0.87290716
0.26002708 -0.11190521 0.86832583
0.26029021 -0.10963729 0.86920446
0.25818804 -0.10638992 0.86218458
0.25752744 -0.10376183 0.85997856
0.25489834 -0.1003707 0.85119909
0.2542927 -0.097805925 0.84917659
0.25261343 -0.094849125 0.84356892
0.25236514 -0.092447251 0.84273982
0.25065747 -0.08952865 0.83703721
0.25103503 -0.087367021 0.83829808
0.24938007 -0.084509708 0.83277154
0.24947044 -0.082258157 0.83307332
0.24737057 -0.079302795 0.82606107
0.24718101 -0.076980807 0.82542807
0.24380019 -0.073697604 0.81413829
0.2419128 -0.07091403 0.80783558
0.23966372 -0.068062276 0.8003251
0.24017556 -0.066010498 0.80203432
0.23919252 -0.063552156 0.79875153
0.23967908 -0.061488837 0.80037636
0.2384946 -0.059003204 0.79642099
0.23888651 -0.056914803 0.79772967
0.23809831 -0.054548878 0.79509759
0.23801649 -0.052352738 0.79482436
0.23627922 -0.049809121 0.78902298
0.23533155 -0.047456522 0.78585839
0.23421323 -0.045088403 0.78212392
0.23306665 -0.042735562 0.77829504
0.23088403 -0.040223211 0.77100646
0.23058672 -0.038061991 0.77001363
0.23054157 -0.035945531 0.76986289
0.23127712 -0.033944476 0.77231914
0.22999369 -0.031652108 0.76803327
0.22951072 -0.029486064 0.76642048
0.22891606 -0.027315525 0.7644347
0.22970609 -0.025308428 0.76707292
0.22951429 -0.023187684 0.7664324
0.23036498 -0.021166233 0.76927316
0.22851506 -0.018905789 0.76309562
0.22900796 -0.016851589 0.7647416
0.22798277 -0.014690548 0.76131809
0.22895306 -0.012658592 0.76455826
0.22782029 -0.010511846 0.76077551
0.22873232 -0.0084614707 0.76382113
0.22800219 -0.0063486807 0.76138294
0.22919695 -0.0042852396 0.76537269
0.22863564 -0.0021831701 0.76349825
0.2301479 -9.2201582e-05 0.76854825
0.22903824 0.0020035005 0.76484269
0.22928563 0.0041031851 0.76566881
0.22806035 0.0061675697 0.76157719
0.22903389 0.0082891146 0.76482815
0.22934909 0.010398624 0.76588076
0.22899328 0.012477337 0.76469254
0.22810423 0.014515609 0.7617237
0.22722407 0.016538261 0.75878453
0.22787715 0.01867043 0.76096541
0.22802369 0.020768413 0.76145476
0.22821091 0.022873154 0.76207995
0.22820212 0.024959881 0.76205057
0.22812431 0.027038265 0.76179075
0.22784016 0.029088885 0.76084185
0.22800456 0.031195676 0.76139086
0.22701794 0.033137463 0.75809616
0.22739917 0.035273373 0.75936925
0.22670904 0.037240271 0.75706464
0.22757266 0.039463986 0.75994861
0.22726689 0.041490011 0.75892752
0.22755368 0.043624043 0.75988519
0.22740287 0.04567543 0.75938159
0.22796085 0.047872905 0.76124489
0.22767532 0.049895734 0.7602914
0.22765334 0.051973507 0.76021802
0.22725505 0.053961515 0.75888795
0.22724931 0.05603905 0.75886881
0.22673698 0.057986911 0.75715792
0.22701275 0.060134169 0.75807887
0.227061 0.062224124 0.75823998
0.22724034 0.064352073 0.75883883
0.22627066 0.066147417 0.75560075
0.22636043 0.06824442 0.7559005
0.2260424 0.070216388 0.75483853
0.22692202 0.072565526 0.75777584
0.22686401 0.074622341 0.75758213
0.22739646 0.076877721 0.75936019
0.22667924 0.078708917 0.7569651
0.22745551 0.08105924 0.75955737
0.22717574 0.083037756 0.75862312
0.22765648 0.085296102 0.76022851
0.22692366 0.087097436 0.75778133
0.22720607 0.089284331 0.75872439
0.22737753 0.091431782 0.75929701
0.22777614 0.093675777 0.7606281
0.22730565 0.095561683 0.75905693
0.227623 0.097777411 0.7601167
0.22731645 0.099725246 0.75909305
0.22735243 0.10182086 0.75921315
0.22637008 0.10345176 0.75593275
0.22596805 0.1053352 0.75459021
0.22537622 0.10712107 0.75261384
0.22525799 0.10912557 0.75221908
0.22494203 0.11103028 0.75116396
0.22547953 0.11335828 0.75295883
0.22510432 0.11522892 0.75170588
0.2254432 0.11746476 0.75283754
0.22538571 0.11949664 0.75264555
0.22538061 0.12155575 0.75262856
0.22536866 0.12361099 0.75258863
0.22485289 0.12538506 0.75086629
0.22352359 0.12668861 0.74642724
0.22206439 0.12789303 0.74155444
0.22042713 0.12896655 0.73608702
0.22079751 0.13120314 0.73732388
0.21972932 0.13257849 0.73375678
0.21996059 0.13473025 0.73452908
0.2187359 0.13598111 0.73043942
0.21785246 0.13742484 0.72748929
0.21788849 0.13944082 0.72760957
0.21767454 0.14129521 0.72689515
0.2170689 0.14288783 0.72487265
0.21534149 0.14372072 0.71910423
0.2147937 0.14532006 0.71727496
0.21396892 0.14671944 0.71452069
0.21416587 0.14881371 0.71517837
0.21381517 0.15052602 0.71400726
0.21408187 0.1526722 0.71489787
0.21386671 0.15447523 0.7141794
0.21463332 0.15699242 0.71673936
0.21444434 0.15881597 0.71610832
0.21477336 0.16102439 0.71720701
0.21317472 0.16177596 0.71186858
0.21381138 0.16421507 0.71399462
0.21338651 0.16584082 0.71257579
0.2145074 0.16867431 0.71631891
0.21344513 0.16979162 0.71277159
0.21349455 0.171784 0.71293664
0.21287082 0.17322947 0.71085376
0.21386047 0.17599124 0.71415854
0.21335296 0.17752536 0.7124638
0.21395381 0.17998259 0.71447027
0.21345522 0.18151586 0.71280527
0.21417996 0.18409149 0.71522546
0.21386899 0.18578069 0.71418703
0.21442436 0.18822469 0.71604156
0.2134247 0.1892996 0.71270335
0.21232803 0.19026928 0.70904118
0.21096292 0.19097589 0.70448256
0.21122742 0.19314766 0.70536584
0.21065557 0.19455187 0.70345622
0.21120824 0.19699442 0.70530176
0.21058066 0.19833548 0.70320606
0.21103241 0.20069149 0.7047146
0.21052845 0.20213817 0.70303172
0.21151803 0.2050233 0.70633632
0.21230945 0.20773263 0.70897913
0.21322587 0.2105799 0.71203941
0.2131452 0.21245009 0.71177
0.21322089 0.21447609 0.71202278
0.21301648 0.21621917 0.71134019
0.21309824 0.2182516 0.71161318
0.21262127 0.21970817 0.71002042
0.21264857 0.2216817 0.71011156
0.21186273 0.22280061 0.70748734
0.21210326 0.2249939 0.70829058
0.21212135 0.2269536 0.70835102
0.2128877 0.22972104 0.71091014
0.21207102 0.23077981 0.70818293
0.21187666 0.23250657 0.7075339
0.21126275 0.23376553 0.70548379
0.21209373 0.23662527 0.70825875
0.21209238 0.23856403 0.70825428
0.21284151 0.24135374 0.71075588
0.2123636 0.24275452 0.70915997
0.21290301 0.24531877 0.71096122
0.21225204 0.24651037 0.70878738
0.21219712 0.2483878 0.70860404
0.21239944 0.25056767 0.70927966
0.21285976 0.25305796 0.71081686
0.21321261 0.25542793 0.71199512
0.21237576 0.25636819 0.70920056
0.27840346 -0.26258224 0.92126352
0.27963656 -0.26121029 0.92534393
0.27895537 -0.25804523 0.9230898
0.27921847 -0.25575742 0.92396045
0.2778776 -0.25201023 0.91952336
0.27852106 -0.25006896 0.92165267
0.2780143 -0.24709372 0.9199757
0.27886435 -0.24532132 0.92278868
0.27770594 -0.24178478 0.91895533
0.27799004 -0.23951213 0.91989547
0.27728534 -0.23639135 0.91756356
0.27866352 -0.23504013 0.92212403
0.27906218 -0.23284668 0.92344332
0.28180212 -0.23257826 0.93251002
0.28282109 -0.23085542 0.93588185
0.28548756 -0.23044398 0.94470549
0.2859872 -0.22825478 0.94635886
0.28776839 -0.22706771 0.95225292
0.28765559 -0.22437108 0.95187968
0.2881057 -0.22211044 0.95336908
0.28805333 -0.21945883 0.95319587
0.2886847 -0.21732287 0.95528507
0.28750238 -0.21382658 0.95137268
0.28690675 -0.21078274 0.94940174
0.28566602 -0.2072816 0.94529605
0.28509447 -0.20428245 0.94340467
0.28303191 -0.20023882 0.93657947
0.28190389 -0.19688529 0.93284678
0.28101271 -0.19371545 0.92989779
0.28088599 -0.19108181 0.92947841
0.28003582 -0.18796489 0.92666513
0.28018969 -0.18552822 0.92717427
0.27865556 -0.18198635 0.92209774
0.27728853 -0.17857988 0.91757405
0.27632582 -0.17545494 0.91438842
0.27637321 -0.17297968 0.91454524
0.27634057 -0.17045417 0.91443717
0.27542105 -0.16739027 0.91139442
0.27353954 -0.16376708 0.90516829
0.27015027 -0.15928902 0.89395297
0.2702193 -0.15688011 0.89418131
0.26909047 -0.15378542 0.89044595
0.26942948 -0.15153673 0.89156771
0.26783064 -0.14820959 0.88627708
0.26787958 -0.14580829 0.88643897
0.26701516 -0.14291725 0.88357854
0.26655954 -0.140257 0.8820709
0.26524067 -0.13715859 0.87770659
0.26525149 -0.13475963 0.87774235
0.26449826 -0.13197927 0.87524992
0.2652061 -0.12992834 0.87759221
0.26405171 -0.1269691 0.87377214
0.26476479 -0.12491185 0.87613183
0.26358819 -0.1219673 0.8722384
0.26461983 -0.12004585 0.87565219
0.26373744 -0.11725473 0.87273228
0.26400074 -0.11497858 0.87360352
0.26288599 -0.11210997 0.86991471
0.26316312 -0.10984255 0.87083179
0.26139426 -0.10673468 0.86497849
0.26076755 -0.10411488 0.86290461
0.25820851 -0.10075244 0.85443652
0.25728881 -0.098061226 0.85139316
0.25576553 -0.095162101 0.84635246
0.2550166 -0.092571676 0.8438741
0.25276077 -0.089461498 0.83640939
0.25215238 -0.086960368 0.83439618
0.25096846 -0.084277004 0.83047849
0.25155497 -0.082193576 0.83241928
0.24935402 -0.079214007 0.82513613
0.24837418 -0.076651186 0.82189375
0.24480222 -0.073329672 0.81007379
0.24329798 -0.070673555 0.80509615
0.24145418 -0.067949146 0.79899484
0.241798 -0.065853976 0.80013257
0.2411902 -0.063502014 0.79812127
0.24202584 -0.061528031 0.80088651
0.24113791 -0.059116349 0.79794824
0.24129857 -0.056968331 0.79847991
0.24058872 -0.054619774 0.79613096
0.24049865 -0.052419163 0.79583287
0.23890074 -0.049905218 0.79054523
0.2374583 -0.04745131 0.78577209
0.2368153 -0.045176052 0.78364432
0.23576489 -0.042838428 0.78016841
0.23355149 -0.040319078 0.77284408
0.2329984 -0.038111433 0.77101386
0.23305403 -0.036007863 0.77119792
0.23384695 -0.034010518 0.77382177
0.23229453 -0.031678956 0.76868469
0.23190765 -0.029523918 0.76740444
0.23089363 -0.02730174 0.76404893
0.23185585 -0.025313713 0.76723307
0.23140164 -0.023166433 0.76573002
0.23213689 -0.02113569 0.76816303
0.23023291 -0.018875241 0.76186258
0.23079813 -0.016829362 0.76373291
0.23020153 -0.014699051 0.76175874
0.23075646 -0.012642644 0.76359504
0.22966318 -0.010500818 0.75997728
0.2304329 -0.0084471051 0.76252437
0.2301024 -0.0063490793 0.76143074
0.23129939 -0.0042853453 0.76539165
0.23013259 -0.0021775439 0.76153064
0.23141401 -9.1868387e-05 0.76577091
0.23036942 0.0019968774 0.76231432
0.23155257 0.0041061896 0.76622945
0.23037218 0.006173613 0.76232344
0.23121612 0.0082922354 0.7651161
0.2314077 0.010396849 0.76575005
0.23079109 0.0124613 0.76370966
0.23027398 0.014520844 0.76199847
0.22949713 0.016552282 0.75942785
0.23020166 0.018689904 0.76175916
0.22999653 0.020758202 0.76108038
0.23037654 0.022880895 0.76233786
0.23009185 0.024938434 0.76139581
0.22979061 0.026988868 0.76039898
0.22920026 0.028997263 0.75844544
0.22945513 0.031109553 0.75928885
0.22855772 0.033059791 0.75631922
0.22872429 0.035157297 0.75687039
0.22840123 0.037178133 0.75580138
0.22923255 0.039391477 0.75855231
0.22882409 0.041395605 0.75720066
0.22917408 0.043536417 0.75835878
0.22895573 0.045570452 0.75763625
0.22924563 0.047706295 0.75859559
0.22834404 0.049588647 0.75561213
0.2288508 0.051773261 0.75728905
0.22869202 0.053810466 0.75676364
0.22968133 0.056125343 0.76003736
0.22941369 0.058139607 0.7591517
0.22969003 0.060291808 0.76006615
0.2294098 0.062297884 0.75913882
0.22928606 0.064342789 0.75872934
0.22863181 0.06623178 0.75656438
0.22827387 0.068197422 0.75537992
0.22799514 0.070180953 0.75445759
0.22865759 0.072457686 0.75664967
0.22879808 0.074576288 0.75711459
0.22919194 0.076782323 0.7584179
0.2283617 0.078574315 0.75567055
0.22922175 0.080948167 0.75851655
0.22911166 0.082986213 0.75815225
0.23007445 0.085420609 0.76133823
0.22964115 0.087341458 0.75990438
0.23004512 0.089580499 0.7612412
0.22992156 0.091616653 0.76083231
0.22973339 0.093624234 0.76020962
0.22915855 0.095467322 0.7583074
0.2294466 0.097667284 0.75926059
0.22944149 0.099745043 0.75924373
0.22918463 0.10171096 0.7583937
0.22820078 0.103343 0.75513804
0.22804791 0.10534106 0.75463217
0.22726959 0.10704176 0.75205666
0.22715597 0.10904746 0.75168067
0.22662501 0.11084696 0.74992371
0.22730301 0.11323912 0.75216728
0.22696941 0.11513042 0.75106335
0.22764546 0.11753698 0.75330043
0.22726864 0.11940265 0.7520535
0.22752857 0.1216018 0.75291365
0.22725859 0.12351764 0.7520203
0.22741573 0.12566459 0.75254023
0.22656107 0.12724614 0.74971211
0.22558725 0.12874418 0.74648964
0.22366455 0.12967443 0.74012727
0.22348052 0.13159363 0.73951828
0.22177947 0.13260244 0.73388934
0.22179748 0.13462384 0.73394895
0.22089402 0.1360779 0.7309593
0.21933323 0.13710469 0.72579449
0.21956971 0.13924295 0.72657704
0.21925054 0.14102809 0.72552091
0.2193881 0.14310534 0.72597605
0.21723031 0.14366704 0.71883571
0.21685591 0.14538527 0.71759683
0.21630293 0.14697535 0.71576697
0.21695556 0.14938554 0.71792656
0.21638393 0.1509535 0.71603501
0.21635261 0.15289292 0.71593136
0.21603654 0.15462796 0.71488547
0.21681796 0.15715274 0.71747124
0.21662882 0.15897942 0.71684533
0.21684445 0.1611034 0.71755892
0.21559659 0.1621307 0.71342957
0.21620828 0.16455066 0.71545374
0.21597309 0.16632949 0.71467549
0.21647465 0.16867813 0.71633518
0.21531206 0.16972408 0.71248806
0.21543097 0.17177072 0.71288157
0.21532883 0.17364126 0.71254355
0.21617159 0.1762805 0.71533233
0.21537147 0.1775804 0.71268469
0.2158718 0.17994983 0.71434027
0.21508659 0.18124509 0.71174198
0.21594639 0.18392719 0.71458715
0.21520953 0.18525049 0.71214879
0.21613517 0.18800656 0.71521181
0.21486211 0.18884695 0.71099913
0.21442354 0.19040525 0.70954788
0.21282594 0.1909159 0.70426124
0.2130757 0.1930715 0.70508772
0.21232887 0.19431959 0.70261639
0.21315414 0.19700713 0.7053473
0.21284406 0.19865 0.70432121
0.21380848 0.20148832 0.70751256
0.21318807 0.20283625 0.70545959
0.21415852 0.20570095 0.70867091
0.21431111 0.20779026 0.70917583
0.21520014 0.21060306 0.71211773
0.21478884 0.21214762 0.71075666
0.21508463 0.21438956 0.71173549
0.21444982 0.21570082 0.70963484
0.21494959 0.21815206 0.71128863
0.21467689 0.21982138 0.71038622
0.21504508 0.22214779 0.7116046
0.21442775 0.22345391 0.70956182
0.21459647 0.22557506 0.71012008
0.21434148 0.22725005 0.70927632
0.21467142 0.22954589 0.7103681
0.21383749 0.23059265 0.70760858
0.21395583 0.2326598 0.70800018
0.21318562 0.23375481 0.70545149
0.21408893 0.23668602 0.7084406
0.21383272 0.23834121 0.70759279
0.21490194 0.2414811 0.71113092
0.21415333 0.24258123 0.70865375
0.21503916 0.24553402 0.71158504
0.21451549 0.2468807 0.70985216
0.21469191 0.24902993 0.71043593
0.21448173 0.25073043 0.7097404
0.21498922 0.25327259 0.71141976
0.21562207 0.25597277 0.71351391
0.21461782 0.25672615 0.71019077
0.28127402 -0.26290637 0.92240077
0.28229156 -0.26132146 0.92573768
0.28170979 -0.25825208 0.92382979
0.28220308 -0.25616905 0.92544752
0.28124732 -0.25277483 0.92231321
0.28191274 -0.25084028 0.9244954
0.28116161 -0.24764605 0.92203212
0.28173342 -0.24561869 0.92390728
0.2805779 -0.24209069 0.92011797
0.28131169 -0.24019659 0.92252427
0.28054833 -0.23702446 0.920021
0.28229803 -0.23596661 0.92575884
0.28260556 -0.23368482 0.92676735
0.28556994 -0.23357058 0.93648869
0.28621998 -0.23153093 0.93862039
0.28841439 -0.23071502 0.94581664
0.28881302 -0.22843932 0.94712394
0.29068393 -0.22730768 0.95325929
0.29045132 -0.22451645 0.95249647
0.29075339 -0.22213793 0.9534871
0.29063135 -0.21943375 0.95308691
0.29118887 -0.21723872 0.95491517
0.2904633 -0.21408798 0.95253575
0.28965744 -0.21089183 0.94989312
0.28853038 -0.20747916 0.94619703
0.28710741 -0.20387664 0.94153059
0.28481647 -0.19969113 0.93401778
0.2842741 -0.19675705 0.93223917
0.28365308 -0.19377895 0.93020254
0.28389129 -0.19139127 0.93098378
0.28313589 -0.1883384 0.92850649
0.28319061 -0.1858307 0.92868596
0.28145552 -0.18216363 0.92299598
0.27933416 -0.17828119 0.91603929
0.27863458 -0.1753315 0.91374511
0.27857748 -0.17279293 0.91355783
0.27869701 -0.17036332 0.91394979
0.27749029 -0.16713279 0.90999252
0.27529955 -0.16334011 0.90280831
0.27261385 -0.15929756 0.89400095
0.27298883 -0.1570642 0.89523059
0.27129266 -0.1536511 0.88966823
0.27188662 -0.15154494 0.89161599
0.27053303 -0.1483601 0.88717711
0.27038047 -0.14584742 0.88667685
0.26903746 -0.14270601 0.88227254
0.26858771 -0.14005454 0.88079768
0.26734456 -0.13700458 0.87672102
0.26756838 -0.13471553 0.877455
0.2669346 -0.13199836 0.87537652
0.26801395 -0.13012435 0.87891614
0.26690245 -0.12718691 0.87527108
0.26737654 -0.1250108 0.87682581
0.26661551 -0.12225979 0.8743301
0.26724988 -0.1201498 0.87641048
0.2667838 -0.11754356 0.87488204
0.26637548 -0.11497062 0.87354296
0.26552686 -0.11221892 0.87076002
0.26568568 -0.1098992 0.87128085
0.26490748 -0.10719746 0.86872888
0.26423761 -0.10455256 0.86653215
0.26168752 -0.10119262 0.85816944
0.26065901 -0.098453224 0.85479659
0.25912187 -0.095544763 0.84975576
0.25725409 -0.092544965 0.84363061
0.25397471 -0.089083597 0.83287627
0.25293958 -0.086448185 0.82948172
0.25227162 -0.083953574 0.82729131
0.25309736 -0.081954613 0.82999915
0.25077954 -0.078951158 0.82239819
0.24958004 -0.076331377 0.81846458
0.24648227 -0.073169634 0.80830586
0.24517715 -0.070579603 0.80402589
0.24322136 -0.067831561 0.79761213
0.2432726 -0.065660365 0.79778016
0.24298403 -0.063399576 0.79683381
0.24414721 -0.061509732 0.80064833
0.24354072 -0.059169039 0.79865944
0.24355192 -0.056983758 0.79869616
0.24224882 -0.054502584 0.79442281
0.24221337 -0.052318633 0.79430658
0.2407268 -0.049834915 0.78943157
0.23960455 -0.047450054 0.78575128
0.23903145 -0.045189172 0.78387189
0.23809174 -0.04287257 0.78079021
0.23654637 -0.040469237 0.77572238
0.23610345 -0.038272381 0.77426988
0.23610187 -0.036151055 0.77426469
0.23666327 -0.034110904 0.77610576
0.23485687 -0.031740658 0.77018189
0.23448129 -0.029583389 0.76895022
0.23310412 -0.027315499 0.76443398
0.23384812 -0.025301861 0.76687384
0.23319925 -0.023136662 0.76474595
0.23410246 -0.021123167 0.76770788
0.2321068 -0.018857919 0.76116341
0.23232932 -0.016788822 0.76189315
0.23182991 -0.014670042 0.7602554
0.23256554 -0.012627291 0.76266778
0.23176067 -0.010501523 0.7600283
0.23232427 -0.0084399292 0.76187658
0.23236719 -0.0063539706 0.76201731
0.2339517 -0.0042955461 0.76721352
0.23285088 -0.0021834711 0.76360351
0.23370455 -9.1944217e-05 0.76640302
0.23247723 0.0019970448 0.76237822
0.23367533 0.0041066059 0.76630718
0.23264004 0.0061783805 0.76291209
0.23323072 0.0082893427 0.76484919
0.23295207 0.010372211 0.76393539
0.23238893 0.01243485 0.7620886
0.23202693 0.01449994 0.76090151
0.23146765 0.016544426 0.75906742
0.23190901 0.018659374 0.7605148
0.23163529 0.020718293 0.75961715
0.23211007 0.022845967 0.76117414
0.2318977 0.024908362 0.76047766
0.23181823 0.026982412 0.76021707
0.23152678 0.029028457 0.75926131
0.23169945 0.031131625 0.75982755
0.23101246 0.033114668 0.75757468
0.23100114 0.035188287 0.75753754
0.23100045 0.037263423 0.75753528
0.23133019 0.039394818 0.75861663
0.23077002 0.041372586 0.75677961
0.23097993 0.043485276 0.75746799
0.23070373 0.045505852 0.75656223
0.23061998 0.04756115 0.75628757
0.22952917 0.049398217 0.7527104
0.23018178 0.051606551 0.75485057
0.23030174 0.053702407 0.75524396
0.23164704 0.056097161 0.75965571
0.23136951 0.058108501 0.75874555
0.23133494 0.06017806 0.75863218
0.23109923 0.062192876 0.75785923
0.23086622 0.064204201 0.7570951
0.23082738 0.066267088 0.75696772
0.23029 0.068181664 0.75520545
0.22989906 0.070131265 0.75392342
0.23002744 0.072236925 0.7543444
0.23045962 0.074443027 0.75576168
0.23083273 0.076637276 0.75698525
0.23057003 0.07862144 0.75612378
0.23118126 0.080906719 0.75812823
0.23137151 0.083051875 0.75875211
0.23197117 0.085351087 0.76071864
0.23186721 0.087395862 0.76037771
0.23254177 0.089739196 0.76258981
0.23206788 0.091641158 0.7610358
0.23171343 0.093582831 0.75987339
0.23093572 0.095343389 0.75732303
0.23170134 0.097741015 0.75983375
0.2315231 0.099745765 0.75924921
0.23129816 0.10172678 0.7585116
0.22983921 0.10314992 0.75372714
0.22977453 0.10518512 0.75351506
0.22887161 0.10682789 0.75055403
0.22913225 0.10900801 0.75140876
0.22863862 0.11082719 0.74978995
0.2298627 0.11348555 0.75380421
0.22947757 0.11535696 0.75254118
0.23033498 0.11785724 0.75535297
0.22945036 0.11946591 0.75245196
0.22979374 0.12170911 0.75357807
0.22870268 0.12318582 0.75000006
0.22929497 0.12556477 0.7519424
0.22850285 0.12718379 0.74934477
0.22867626 0.12933466 0.74991339
0.22679693 0.13030922 0.74375039
0.22640578 0.13211846 0.7424677
0.22442868 0.13298093 0.73598403
0.22272065 0.13396972 0.7303828
0.22245397 0.13580777 0.72950822
0.22103876 0.13692953 0.72486722
0.2213624 0.13911867 0.72592854
0.22084814 0.14077951 0.72424215
0.2214157 0.14313044 0.72610337
0.21973398 0.14401734 0.72058839
0.2196822 0.14595695 0.72041857
0.21897157 0.14745198 0.71808815
0.21915525 0.14954451 0.71869051
0.21851327 0.15106949 0.71658522
0.21850988 0.15303019 0.71657413
0.21852168 0.15500158 0.71661282
0.21904114 0.15733784 0.71831632
0.2185211 0.15892743 0.71661091
0.21868552 0.16101161 0.71715009
0.21771261 0.16225114 0.71395957
0.21830991 0.16465752 0.71591836
0.21781594 0.16624174 0.71429843
0.21804513 0.16837552 0.71505004
0.21712762 0.16961764 0.7120412
0.21749896 0.17186165 0.71325892
0.21764168 0.17392966 0.713727
0.21821862 0.17635113 0.71561897
0.21772122 0.17790511 0.71398783
0.21801655 0.18010502 0.71495628
0.21753912 0.18166493 0.71339065
0.21767682 0.18373546 0.71384221
0.21706967 0.18517306 0.71185112
0.21746255 0.18746182 0.71313953
0.21693628 0.18895705 0.71141368
0.21700679 0.19096799 0.71164495
0.21553698 0.19161087 0.7068249
0.21551056 0.19352345 0.70673823
0.21461299 0.19464549 0.70379478
0.21543494 0.19732638 0.70649028
0.21553026 0.19934994 0.70680285
0.2161665 0.20188038 0.70888931
0.21559063 0.20327938 0.70700079
0.21582921 0.20544328 0.70778322
0.21613234 0.20767349 0.70877731
0.21655954 0.21002948 0.71017826
0.2163004 0.21172132 0.70932841
0.21645036 0.21381263 0.70982021
0.21586072 0.21516941 0.70788658
0.21627283 0.21752314 0.70923799
0.21616815 0.21935984 0.70889473
0.21674447 0.22189184 0.71078467
0.2166148 0.2237051 0.71035945
0.21662441 0.22566111 0.71039099
0.2167186 0.22770616 0.71069986
0.21687329 0.22981702 0.71120715
0.21646096 0.23132469 0.70985496
0.21625093 0.23304297 0.70916617
0.21555498 0.23422946 0.70688391
0.21618061 0.23685138 0.70893556
0.21574575 0.23831317 0.70750952
0.216699 0.24131289 0.7106356
0.21596599 0.24243678 0.70823175
