# .PCD v0.7 - Point Cloud Data file format
VERSION 0.7
FIELDS x y z
SIZE 4 4 4
TYPE F F F
COUNT 1 1 1
WIDTH 1386
HEIGHT 1
VIEWPOINT 0 0 0 1 0 0 0
POINTS 1386
DATA ascii
0.067609482 -0.1256526 0.97499835
0.067780539 -0.12329278 0.97746521
0.067669928 -0.12041823 0.97587007
0.067794114 -0.11796096 0.97766101
0.067446649 -0.11469183 0.97265023
0.067480586 -0.11208367 0.97313964
0.067332596 -0.10917782 0.97100544
0.067263871 -0.10640907 0.97001433
0.066851839 -0.10311621 0.96407247
0.066793554 -0.10038757 0.96323192
0.066616282 -0.097489402 0.96067548
0.066711605 -0.094993405 0.96205008
0.066495992 -0.092059396 0.95894074
0.066541307 -0.089493364 0.95959419
0.066147812 -0.086350918 0.95391965
0.065951146 -0.083488725 0.95108348
0.065357737 -0.080155507 0.94252592
0.065209992 -0.077398136 0.9403953
0.065130316 -0.07473053 0.9392463
0.065323107 -0.072371103 0.94202656
0.065121837 -0.069575422 0.93912405
0.064870536 -0.066744164 0.93550003
0.064655043 -0.063968197 0.93239236
0.064573333 -0.06133632 0.93121397
0.064260088 -0.058500133 0.92669672
0.064210102 -0.055917952 0.92597586
0.063997947 -0.053204898 0.92291629
0.064074434 -0.050737172 0.9240194
0.063822538 -0.048016343 0.92038679
0.063969925 -0.045600045 0.92251229
0.06395635 -0.043063711 0.92231643
0.064116403 -0.040638506 0.92462456
0.06389837 -0.037975956 0.92148036
0.063964263 -0.035488151 0.92243057
0.063903309 -0.032929778 0.92155159
0.064023785 -0.030462544 0.923289
0.063759789 -0.02781805 0.91948187
0.06385947 -0.025338719 0.92091942
0.063632846 -0.022734923 0.91765118
0.063804448 -0.020275583 0.92012584
0.063574925 -0.017691066 0.91681594
0.063628487 -0.015192271 0.91758835
0.063504241 -0.012653816 0.91579658
0.063559964 -0.010153929 0.91660023
0.063573889 -0.0076446114 0.91680098
0.063589089 -0.0051342975 0.9170202
0.0633251 -0.0026112695 0.91321319
0.06306202 -0.00010910167 0.9094193
0.062535979 0.0023623463 0.90183324
0.062370885 0.0048201256 0.89945245
0.062079925 0.0072501604 0.89525652
0.062239271 0.0097275861 0.8975544
0.062285669 0.012195488 0.89822352
0.062366489 0.014675153 0.89938903
0.062264431 0.017110949 0.89791727
0.062060673 0.019506715 0.89497888
0.06190924 0.021904895 0.89279503
0.061568584 0.024216684 0.88788241
0.061610475 0.026667137 0.88848656
0.061518181 0.029057518 0.88715559
0.06167835 0.031569827 0.88946539
0.061593972 0.033959962 0.88824856
0.061645523 0.036423743 0.88899195
0.06157811 0.038816608 0.8880198
0.061620526 0.041277718 0.88863146
0.061586343 0.043687843 0.88813853
0.061540473 0.046086513 0.88747704
0.061406169 0.048411839 0.88554025
0.061371215 0.050808802 0.88503617
0.061264046 0.053140368 0.88349068
0.061328199 0.055618834 0.88441581
0.061046869 0.057775412 0.88035876
0.060961872 0.06010332 0.87913305
0.060687296 0.06223011 0.87517333
0.060828604 0.064778104 0.87721115
0.060661189 0.066996284 0.87479687
0.060769744 0.069516934 0.87636232
0.060685508 0.071818016 0.87514758
0.060776252 0.074326426 0.8764562
0.060637619 0.076552421 0.87445694
0.060775336 0.079127267 0.87644297
0.060680572 0.081401125 0.87507635
0.060811099 0.083978623 0.87695873
0.06056805 0.086035766 0.87345368
0.060649838 0.088547967 0.87463319
0.060494483 0.090711042 0.87239277
0.060542956 0.093175523 0.87309182
0.060358152 0.095275611 0.87042677
0.060468122 0.097838044 0.87201262
0.060387082 0.10009257 0.87084395
0.060638055 0.10290412 0.87446326
0.06049072 0.10504383 0.87233853
0.060661774 0.10773735 0.87480527
0.060418706 0.10969255 0.87129998
0.060472354 0.11217897 0.87207365
0.060202427 0.1140566 0.86818105
0.060235899 0.11649968 0.86866373
0.059920177 0.11825626 0.86411071
0.059848055 0.12047826 0.86307061
0.059711244 0.1225618 0.86109769
0.059894592 0.12530433 0.86374176
0.059824973 0.12752211 0.86273777
0.059725527 0.12966964 0.86130363
0.05951798 0.13157034 0.85831058
0.059591878 0.13408794 0.85937631
0.059573106 0.13639918 0.85910559
0.059664678 0.13896595 0.86042613
0.059461098 0.14084086 0.8574903
0.059449796 0.1431627 0.85732734
0.059414607 0.14542519 0.85681987
0.059550706 0.1481109 0.85878253
0.059471224 0.15026268 0.85763633
0.059429854 0.15250599 0.85703975
0.059308488 0.15453757 0.85528952
0.05938879 0.15709302 0.85644758
0.059122942 0.15872552 0.85261375
0.059153464 0.16114436 0.85305393
0.058892857 0.16276103 0.84929568
0.058993869 0.16537081 0.85075235
0.058608882 0.16660701 0.84520048
0.058394026 0.16830315 0.84210205
0.057981063 0.16940349 0.83614665
0.057889007 0.17142148 0.83481914
0.057703599 0.1731521 0.83214539
0.057740875 0.17554505 0.83268291
0.057547711 0.17723125 0.82989728
0.057651695 0.17982909 0.83139688
0.05768257 0.18220419 0.83184212
0.057899751 0.18517758 0.83497405
0.057857659 0.18732868 0.83436704
0.057934027 0.18986468 0.83546835
0.057867944 0.19193423 0.83451539
0.057950761 0.1944983 0.83570969
0.057880752 0.19654997 0.83470011
0.057977166 0.19916782 0.83609051
0.057846885 0.20100555 0.83421171
0.057919808 0.20354711 0.83526331
0.057804607 0.20542587 0.83360201
0.057803065 0.20770396 0.83357978
0.057496015 0.20887208 0.82915181
0.05744281 0.21094811 0.82838452
0.05719126 0.21228373 0.82475692
0.05716671 0.21445103 0.82440287
0.057138883 0.21660395 0.82400155
0.057152364 0.21891291 0.82419598
0.078150846 -0.26743734 1.0841841
0.077741489 -0.26308197 1.078505
0.07768134 -0.2599262 1.0776706
0.077416249 -0.25609702 1.073993
0.077449366 -0.25326315 1.0744524
0.077103883 -0.24920312 1.0696596
0.077026881 -0.24602689 1.0685914
0.076864272 -0.24258631 1.0663354
0.077041037 -0.24021628 1.0687877
0.076993011 -0.23714045 1.0681214
0.077181034 -0.23478635 1.0707299
0.077282332 -0.23215744 1.0721352
0.077570252 -0.23007432 1.0761294
0.077570006 -0.2271256 1.0761261
0.077732146 -0.22464618 1.0783755
0.077686906 -0.22156298 1.0777478
0.077896245 -0.21919961 1.080652
0.077751018 -0.21583606 1.0786372
0.077873357 -0.21321613 1.0803344
0.077729166 -0.2098673 1.0783341
0.077783704 -0.2070584 1.0790907
0.077131011 -0.20238963 1.0700359
0.075972542 -0.19646254 1.0539645
0.07474912 -0.190458 1.036992
0.074191041 -0.18621646 1.0292498
0.073657997 -0.18207921 1.0218549
0.073473498 -0.1788308 1.0192953
0.073091298 -0.17512277 1.0139931
0.073072769 -0.17230128 1.013736
0.072871558 -0.16905738 1.0109446
0.072642535 -0.16576535 1.0077674
0.07194487 -0.16143908 0.99808872
0.07139156 -0.15748429 0.99041271
0.071076013 -0.15408702 0.98603517
0.070927575 -0.15106966 0.98397583
0.070604831 -0.14769894 0.97949845
0.070511393 -0.14482373 0.97820216
0.070300885 -0.14171961 0.97528177
0.070307605 -0.13906115 0.975375
0.070155255 -0.13609362 0.97326148
0.070366435 -0.13382904 0.97619116
0.070398964 -0.13121544 0.97664243
0.070528284 -0.12877609 0.97843653
0.070384778 -0.12583911 0.97644562
0.070439056 -0.12325916 0.97719866
0.070350789 -0.12043107 0.97597414
0.070355646 -0.11776555 0.9760415
0.070078045 -0.11463761 0.97219038
0.070029922 -0.11189744 0.97152275
0.069773488 -0.10883598 0.96796519
0.069679469 -0.1060412 0.96666092
0.06940189 -0.10298119 0.96281004
0.069480628 -0.10045744 0.96390241
0.06930235 -0.097565882 0.96142912
0.069291763 -0.094917595 0.96128231
0.069005311 -0.091902681 0.95730829
0.069010191 -0.089286491 0.957376
0.068625249 -0.086180389 0.95203578
0.068533167 -0.083460175 0.95075828
0.068011664 -0.080240346 0.94352353
0.06789352 -0.077520698 0.94188446
0.067762889 -0.074796252 0.94007224
0.067886963 -0.072353192 0.9417935
0.067723326 -0.069605008 0.9395234
0.067511961 -0.066822007 0.93659115
0.067330889 -0.064083919 0.93407917
0.067239918 -0.061441913 0.9328171
0.066847585 -0.058542904 0.92737424
0.066766746 -0.055934675 0.92625278
0.066478983 -0.053167101 0.9222607
0.06656909 -0.05070924 0.92351073
0.066321708 -0.048000276 0.92007881
0.066539489 -0.045629099 0.92310005
0.066385567 -0.043000601 0.92096472
0.066504247 -0.040550012 0.92261112
0.066256918 -0.037881151 0.91917998
0.066396706 -0.035437699 0.92111921
0.066335581 -0.032884028 0.92027122
0.066410281 -0.030397171 0.92130756
0.066157654 -0.027767254 0.91780287
0.066228375 -0.025279963 0.91878402
0.066073626 -0.0227098 0.91663718
0.06627287 -0.020259617 0.91940123
0.066084236 -0.017690457 0.91678435
0.066208392 -0.015207478 0.9185068
0.066125035 -0.012675284 0.91735035
0.066170678 -0.010169253 0.91798353
0.065983951 -0.0076328721 0.91539311
0.065938219 -0.0051216353 0.91475868
0.065647237 -0.0026041458 0.9107219
0.065469474 -0.00010896209 0.90825582
0.064959466 0.0023606364 0.90118045
0.064849846 0.0048212362 0.89965969
0.064585187 0.0072560851 0.89598811
0.064691588 0.0097266082 0.89746422
0.064700626 0.012186879 0.89758956
0.064735845 0.014653766 0.8980782
0.064681463 0.017099638 0.89732373
0.064522631 0.019509798 0.89512026
0.064373687 0.021911249 0.89305401
0.064037748 0.024230622 0.88839346
0.063983381 0.026641704 0.88763922
0.063839264 0.029007876 0.88563997
0.063917704 0.031472672 0.88672811
0.063790657 0.033834446 0.88496566
0.06394539 0.036346726 0.8871122
0.063909449 0.038755145 0.88661361
0.06415493 0.041342176 0.89001918
0.064031467 0.043696098 0.88830638
0.0640231 0.046123549 0.88819027
0.063789293 0.048379388 0.8849467
0.06385123 0.050852992 0.8858059
0.063673563 0.053131379 0.88334119
0.063697606 0.05557223 0.88367474
0.063441351 0.057759721 0.88011968
0.063407667 0.060138829 0.87965244
0.063045964 0.062191799 0.87463456
0.06310685 0.0646502 0.87547916
0.062923573 0.066853814 0.87293655
0.063155346 0.069500245 0.87615192
0.063104145 0.071842149 0.87544167
0.063199282 0.074352309 0.8767615
0.062918708 0.076413423 0.87286913
0.062981986 0.078883864 0.87374693
0.062926129 0.081205368 0.87297201
0.063164741 0.083913848 0.87628227
0.06291528 0.085973494 0.87282151
0.062976733 0.088450871 0.87367409
0.062759779 0.090531312 0.8706643
0.062864721 0.093071833 0.87212014
0.062716924 0.09523654 0.8700698
0.062876724 0.0978688 0.87228668
0.062758245 0.10006946 0.87064296
0.062988482 0.10283043 0.87383711
0.062816754 0.1049374 0.87145472
0.063029774 0.10768867 0.87440991
0.062841862 0.10975589 0.87180305
0.062985621 0.1124007 0.87379736
0.062576279 0.11404839 0.86811858
0.062365115 0.11603369 0.86518914
0.062029757 0.11776714 0.86053669
0.062177155 0.12040999 0.86258155
0.062224515 0.12286651 0.86323857
0.062388383 0.12556113 0.86551189
0.062200397 0.12754668 0.86290401
0.062099472 0.12969978 0.86150384
0.061986331 0.13181923 0.85993427
0.062110431 0.13444361 0.86165589
0.061982136 0.13652152 0.8598761
0.062003411 0.13892478 0.8601712
0.061790798 0.14079674 0.85722166
0.06187214 0.14333349 0.8583501
0.061818331 0.14555821 0.85760361
0.061910521 0.14812815 0.85888255
0.06175952 0.150114 0.85678774
0.061728191 0.1523838 0.8563531
0.061655577 0.15454774 0.85534573
0.061826658 0.15732625 0.85771912
0.061596248 0.15908088 0.85452265
0.061625168 0.16149759 0.85492384
0.061221365 0.16276607 0.8493219
0.061215237 0.16507623 0.84923691
0.060763713 0.16616791 0.84297293
0.060574781 0.16795336 0.84035188
0.060200773 0.16920426 0.8351633
0.060103301 0.17121449 0.83381104
0.05995547 0.17307195 0.83176023
0.059970669 0.17539498 0.83197105
0.059829414 0.17725563 0.83001143
0.059837963 0.17955507 0.83013004
0.059829328 0.18180294 0.83001024
0.059984989 0.18455565 0.83216971
0.059972078 0.18679513 0.8319906
0.060122944 0.18954997 0.83408356
0.06011064 0.19179565 0.83391285
0.060138661 0.19417059 0.83430159
0.060033605 0.19611293 0.83284414
0.060054932 0.19846497 0.83314002
0.059957046 0.20042011 0.83178204
0.059985284 0.20279422 0.83217382
0.059928194 0.20487875 0.8313818
0.06003163 0.20751384 0.83281678
0.059858408 0.20918995 0.83041364
0.059793912 0.21123698 0.82951891
0.059542943 0.21261327 0.82603723
0.059308566 0.21403036 0.82278574
0.059422269 0.21669899 0.82436311
0.059297998 0.21849939 0.82263911
0.080936417 -0.26682907 1.0817181
0.080472045 -0.26235181 1.0755117
0.080525398 -0.25957748 1.0762248
0.080294311 -0.25589272 1.0731363
0.080346547 -0.25311747 1.0738344
0.079998955 -0.24909344 1.0691888
0.080004089 -0.24618025 1.0692575
0.079869658 -0.24284232 1.0674608
0.080065742 -0.24050708 1.0700815
0.079994172 -0.23736325 1.0691249
0.080225512 -0.23511241 1.0722169
0.080320269 -0.23244934 1.0734832
0.080660507 -0.23048079 1.0780306
0.080609471 -0.2273836 1.0773485
0.080817945 -0.22501267 1.0801347
0.080714166 -0.22176854 1.0787477
0.08101631 -0.21963245 1.0827858
0.080840468 -0.21619594 1.0804358
0.080976374 -0.21359462 1.0822521
0.080827326 -0.21024212 1.08026
0.080852054 -0.2073462 1.0805906
0.080119848 -0.20253502 1.0708046
0.07901074 -0.1968385 1.0559814
0.077631123 -0.19055916 1.0375427
0.076990642 -0.18616813 1.0289826
0.076254979 -0.18159734 1.0191505
0.075968832 -0.17813443 1.0153261
0.075560242 -0.17440987 1.0098653
0.075536653 -0.17158981 1.0095501
0.075498015 -0.16873783 1.0090337
0.075304143 -0.16554742 1.0064425
0.074774683 -0.16164571 0.99936628
0.074111789 -0.15749924 0.99050671
0.073688343 -0.1539014 0.98484731
0.073496267 -0.15080932 0.98228019
0.073207125 -0.14753568 0.97841579
0.073152155 -0.1447466 0.97768116
0.072877161 -0.14153419 0.97400588
0.072994508 -0.13908955 0.9755742
0.072887391 -0.13621682 0.97414255
0.073128819 -0.13399054 0.97736925
0.073020443 -0.13111848 0.9759208
0.073209189 -0.128777 0.97844344
0.073111258 -0.1259279 0.97713459
0.073053077 -0.123153 0.97635698
0.072896712 -0.12022043 0.97426713
0.072906785 -0.11756771 0.97440177
0.072753489 -0.11465678 0.97235292
0.072651863 -0.11183662 0.97099471
0.07236883 -0.10875129 0.96721196
0.072339825 -0.10605913 0.96682435
0.072218001 -0.10323641 0.96519619
0.072258301 -0.10064841 0.96573478
0.071876377 -0.09748482 0.9606303
0.071649872 -0.094554298 0.95760304
0.071321487 -0.09150964 0.95321417
0.071441099 -0.089047439 0.95481282
0.071164913 -0.086097635 0.95112163
0.071148314 -0.083472595 0.95089978
0.07068646 -0.080342695 0.94472706
0.070644371 -0.077708356 0.94416451
0.070417456 -0.074880548 0.94113177
0.070404321 -0.072288871 0.94095623
0.070156753 -0.069466032 0.93764752
0.070063539 -0.066808499 0.93640172
0.069987841 -0.064173847 0.93538994
0.069819465 -0.061463159 0.93313968
0.069362648 -0.058521442 0.92703426
0.069236934 -0.055880409 0.92535412
0.06898725 -0.053153057 0.92201704
0.069124103 -0.050727654 0.92384607
0.06880492 -0.047974262 0.91958016
0.069012351 -0.045592148 0.92235255
0.068610452 -0.042814605 0.91698116
0.068736352 -0.040376518 0.91866374
0.068513475 -0.037737116 0.915685
0.068837896 -0.035395447 0.92002094
0.068713814 -0.032815825 0.91836256
0.068739757 -0.030311447 0.91870934
0.068665996 -0.027764851 0.91772348
0.06881427 -0.02530531 0.91970521
0.0686884 -0.022744132 0.91802287
0.068714276 -0.020236865 0.9183687
0.068492331 -0.017663792 0.91540247
0.068584345 -0.015176442 0.91663224
0.068475403 -0.012645243 0.91517615
0.068548732 -0.01014901 0.91615623
0.068329617 -0.007614817 0.9132278
0.068426453 -0.0051203105 0.91452199
0.068084046 -0.0026019264 0.90994573
0.068025149 -0.00010907039 0.90915859
0.067563035 0.0023653563 0.90298235
0.06752488 0.0048363092 0.90247238
0.067198962 0.007273322 0.89811653
0.067162007 0.0097283255 0.89762264
0.06719584 0.012193467 0.89807475
0.067162074 0.014646347 0.89762354
0.067133434 0.017098056 0.8972407
0.066918805 0.019493492 0.89437217
0.066868305 0.021927033 0.89369732
0.066568777 0.024266096 0.88969409
0.066496618 0.026674433 0.88872969
0.066214085 0.028985396 0.88495362
0.066190407 0.031398457 0.88463712
0.066043407 0.033746775 0.88267249
0.066274978 0.036291629 0.8857674
0.06628193 0.038722217 0.88586032
0.066504471 0.04128715 0.8888346
0.066336721 0.043611798 0.88659263
0.066403992 0.046087276 0.88749176
0.066239074 0.048398025 0.88528758
0.066352278 0.050910093 0.88680053
0.06610591 0.053141396 0.88350779
0.066048704 0.05551365 0.88274324
0.065769605 0.0576871 0.87901312
0.065693274 0.060025379 0.87799299
0.065335393 0.062090494 0.87320983
0.065296896 0.064444631 0.87269533
0.065161958 0.066697225 0.87089193
0.065441072 0.069378912 0.87462229
0.065482542 0.071820393 0.87517655
0.065542459 0.074285813 0.87597734
0.065275945 0.076373696 0.87241536
0.065242 0.078722686 0.87196165
0.065156251 0.081004776 0.87081558
0.06532459 0.083605796 0.87306547
0.065125942 0.085736014 0.8704105
0.065231726 0.088263601 0.87182432
0.065041818 0.090388015 0.86928618
0.065180168 0.09296672 0.87113523
0.064948283 0.095013939 0.86803615
0.065144822 0.097686611 0.87066287
0.065061294 0.099943437 0.86954647
0.065334253 0.10275483 0.87319463
0.0651749 0.10489046 0.87106484
0.065402329 0.10765105 0.87410444
0.065248936 0.10978752 0.87205434
0.065327793 0.11231206 0.87310833
0.064770818 0.11372597 0.8656643
0.064580828 0.11575686 0.86312503
0.064278282 0.117568 0.85908157
0.064523757 0.12037938 0.86236227
0.064484142 0.12266643 0.86183286
0.064660616 0.12536956 0.86419141
0.064497598 0.12741494 0.86201268
0.06455677 0.12989545 0.86280352
0.064454943 0.13205044 0.86144257
0.06450735 0.13451962 0.86214304
0.06426584 0.13636895 0.85891521
0.064271376 0.13873388 0.85898924
0.064047232 0.140595 0.85599351
0.06414403 0.14315601 0.85728723
0.06408824 0.14537796 0.85654163
0.064234145 0.14806072 0.8584916
0.064051628 0.14998515 0.85605228
0.063997433 0.15220138 0.85532796
0.063869931 0.15423661 0.85362387
0.064036593 0.15698366 0.85585129
0.063819863 0.15878899 0.85295475
0.063792363 0.16105619 0.85258716
0.063302197 0.16213636 0.84603608
0.063302815 0.16445565 0.84604436
0.062983654 0.16593252 0.84177881
0.062937506 0.16811526 0.84116197
0.062463451 0.16913597 0.83482623
0.062324263 0.17104095 0.83296597
0.062100418 0.17270035 0.82997429
0.062220804 0.17531322 0.83158326
0.062097825 0.17724031 0.82993966
0.062178008 0.17974569 0.8310113
0.062040951 0.18162099 0.82917953
0.062215723 0.18441053 0.83151537
0.062121075 0.18640442 0.83025038
0.062289957 0.1891918 0.83250749
0.062196087 0.19118388 0.83125293
0.062262613 0.19366799 0.83214206
0.062132634 0.19553855 0.83040488
0.062216815 0.19808142 0.83152992
0.062138669 0.20010772 0.83048552
0.06224329 0.20272355 0.83188379
0.062149316 0.20469294 0.8306278
0.062236726 0.20725951 0.83179605
0.062075641 0.20899585 0.82964313
0.062006675 0.2110339 0.8287214
0.061810892 0.21263066 0.82610476
0.061613493 0.21420746 0.82346654
0.061642494 0.21656521 0.82385415
0.061500497 0.21831805 0.82195634
0.083872743 -0.26674321 1.08137
0.083380714 -0.26223341 1.0750263
0.083468743 -0.25956216 1.0761613
0.08319325 -0.25576708 1.0726093
0.083241858 -0.25297642 1.073236
0.082857303 -0.24888124 1.068278
0.082922757 -0.24614902 1.0691218
0.082774535 -0.24278545 1.0672108
0.082989268 -0.24048413 1.0699794
0.08290673 -0.2373167 1.0689152
0.083196245 -0.23520693 1.0726479
0.083308317 -0.23258135 1.0740929
0.083699912 -0.23071834 1.0791417
0.083704732 -0.22777519 1.0792038
0.083955444 -0.22549213 1.0824363
0.083893239 -0.22236195 1.0816343
0.084128939 -0.22001527 1.0846732
0.083932236 -0.21653639 1.0821371
0.084046595 -0.2138629 1.0836115
0.083993152 -0.21076028 1.0829225
0.084018633 -0.20785668 1.083251
0.083377086 -0.20332468 1.0749795
0.082204819 -0.1975625 1.0598655
0.080431923 -0.19046088 1.0370076
0.07945206 -0.18533435 1.0243742
0.078793749 -0.18101576 1.0158867
0.07860174 -0.17779844 1.013411
0.078227341 -0.17418855 1.0085839
0.078193232 -0.17135084 1.0081441
0.078124598 -0.16844109 1.0072592
0.078080378 -0.16558798 1.0066892
0.077581786 -0.1617904 1.0002608
0.076980226 -0.15781698 0.99250489
0.076414041 -0.15395731 0.98520505
0.07617829 -0.15079172 0.98216552
0.075876541 -0.14751448 0.97827512
0.075815335 -0.14471771 0.97748601
0.075508617 -0.14146526 0.97353142
0.075561166 -0.13889492 0.97420901
0.075496756 -0.13610998 0.97337854
0.075777225 -0.13393919 0.97699463
0.075740479 -0.13119909 0.97652084
0.075844489 -0.12870045 0.97786182
0.075616814 -0.12564333 0.97492647
0.07539653 -0.12261432 0.97208637
0.075166762 -0.11958578 0.96912396
0.0752552 -0.11706848 0.9702642
0.075273849 -0.11443882 0.97050458
0.07534419 -0.11188462 0.97141153
0.075100787 -0.10887063 0.96827328
0.07499814 -0.1060729 0.96694994
0.074876338 -0.10325601 0.96537948
0.074901856 -0.10064568 0.96570849
0.074546039 -0.097534612 0.96112096
0.074111551 -0.094348527 0.95551908
0.073842742 -0.091398202 0.95205337
0.073965929 -0.088938214 0.95364159
0.073951386 -0.086308777 0.95345408
0.073897041 -0.083635315 0.95275342
0.073412985 -0.080494538 0.94651252
0.07325802 -0.07773716 0.94451451
0.073037975 -0.07492397 0.94167751
0.072979122 -0.072285995 0.94091874
0.072707981 -0.069449395 0.93742293
0.072668269 -0.066844828 0.93691093
0.072424538 -0.064062603 0.93376851
0.072189324 -0.06130483 0.93073589
0.071735665 -0.058385883 0.92488688
0.071732432 -0.055849671 0.92484516
0.071544163 -0.053176161 0.92241782
0.071633816 -0.050712701 0.92357373
0.071345143 -0.047988433 0.91985184
0.071503244 -0.045569297 0.92189026
0.07111121 -0.042807814 0.91683573
0.071161084 -0.040324438 0.9174788
0.070867173 -0.037654877 0.91368943
0.071171984 -0.035303053 0.91761935
0.071053006 -0.03273445 0.9160853
0.071182922 -0.030280134 0.91776031
0.071131878 -0.027746057 0.91710228
0.071217164 -0.025263945 0.9182018
0.071168497 -0.022733022 0.91757441
0.071169585 -0.020219669 0.91758835
0.070962034 -0.017654335 0.9149124
0.071051426 -0.015167049 0.91606498
0.070912138 -0.01263271 0.91426909
0.071000211 -0.010140685 0.91540468
0.070573069 -0.0075870487 0.90989757
0.070791937 -0.0051102177 0.91271937
0.070543461 -0.0026006969 0.90951574
0.070650369 -0.0001092786 0.91089416
0.07023792 0.0023721515 0.90557641
0.070173405 0.0048484863 0.90474463
0.069803581 0.0072883852 0.89997655
0.069660619 0.0097338594 0.89813328
0.069762103 0.012212027 0.89944172
0.06968949 0.014660738 0.89850557
0.069681846 0.017120281 0.89840704
0.069456436 0.01951809 0.89550078
0.069301859 0.021922383 0.89350784
0.068957999 0.024249196 0.88907444
0.068846539 0.02664165 0.88763744
0.068603508 0.028970668 0.88450396
0.068545826 0.031367335 0.88376033
0.068392508 0.033712789 0.8817836
0.068677187 0.036278784 0.88545394
0.068591543 0.038656186 0.8843497
0.068800643 0.041204054 0.88704562
0.068574317 0.043490548 0.88412768
0.0687401 0.046023574 0.88626504
0.068547301 0.048315566 0.88377929
0.068693779 0.050845072 0.88566792
0.068410069 0.053051308 0.88200998
0.06840229 0.055461235 0.88190973
0.068080172 0.057604637 0.8777566
0.067986161 0.059926353 0.87654454
0.067660466 0.062029026 0.87234539
0.067740694 0.064495169 0.87337971
0.067611039 0.066759735 0.87170815
0.067793854 0.069334708 0.8740651
0.067792922 0.071728207 0.87405318
0.06791921 0.074260712 0.87568134
0.06779018 0.076513976 0.87401778
0.067683794 0.078784481 0.87264615
0.06752304 0.08098226 0.87057352
0.06762936 0.083498441 0.87194437
0.067386955 0.085579246 0.868819
0.067514531 0.088125862 0.87046385
0.067258231 0.090166874 0.86715937
0.067483924 0.092852965 0.87006927
0.067353129 0.095051892 0.86838287
0.067579083 0.09775766 0.87129611
0.067448258 0.099950671 0.86960942
0.067495771 0.10240502 0.87022197
0.067346863 0.10455777 0.86830211
0.067562535 0.10727891 0.87108278
0.067452766 0.10948703 0.86966747
0.067426182 0.11182536 0.86932474
0.066937186 0.11337859 0.86302018
0.066846251 0.11558556 0.8618477
0.066632576 0.11756954 0.85909283
0.06674239 0.12012064 0.86050868
0.066625759 0.12226393 0.85900491
0.066731319 0.12481458 0.86036587
0.066701479 0.12711467 0.85998118
0.066970803 0.12999332 0.86345357
0.066961929 0.13234116 0.86333913
0.066985093 0.13475285 0.8636378
0.066561237 0.13625112 0.85817301
0.066565737 0.13861142 0.85823101
0.066442586 0.14070173 0.85664326
0.066621572 0.14343382 0.85895091
0.06647414 0.14546426 0.85705012
0.066523403 0.14792165 0.85768527
0.066300243 0.14976715 0.85480803
0.066272728 0.15204574 0.85445327
0.066068098 0.15390979 0.85181504
0.066190816 0.15653351 0.85339719
0.065991357 0.15839261 0.85082555
0.065905102 0.16051333 0.84971344
0.06548059 0.16179222 0.84424031
0.065440267 0.16400392 0.84372044
0.065178223 0.16564928 0.84034187
0.065248556 0.16813259 0.84124869
0.06477081 0.16918923 0.83508909
0.064653881 0.17116736 0.83358157
0.064403467 0.17277913 0.8303529
0.064584047 0.17554468 0.83268118
0.064431615 0.17740607 0.83071589
0.064425513 0.17966478 0.83063722
0.064302422 0.18159264 0.82905018
0.064582698 0.18466522 0.83266377
0.064395815 0.1864053 0.83025432
0.064499103 0.18898238 0.831586
0.064330705 0.19076113 0.82941484
0.064477794 0.19347464 0.83131123
0.064297356 0.19520417 0.82898486
0.064315803 0.1975318 0.82922268
0.064313069 0.19979493 0.82918739
0.064495809 0.20264062 0.83154351
0.064413235 0.20465624 0.83047891
0.064472571 0.20712194 0.83124393
0.064318709 0.20889936 0.82926011
0.064352162 0.21128093 0.82969147
0.064165018 0.2129328 0.82727861
0.063875102 0.21422675 0.82354069
0.063938379 0.21669726 0.82435656
0.063851029 0.21865642 0.82323033
0.086825557 -0.26671383 1.0812509
0.086427383 -0.26254225 1.0762924
0.086439222 -0.25962934 1.0764399
0.086187862 -0.25593406 1.0733097
0.08616107 -0.25291514 1.072976
0.085789278 -0.24889709 1.068346
0.085799046 -0.2459984 1.0684676
0.085582271 -0.24245726 1.0657681
0.085912004 -0.24046052 1.0698743
0.085905932 -0.23751284 1.0697987
0.086308755 -0.23568216 1.0748152
0.086319998 -0.23276804 1.0749551
0.086810566 -0.23112936 1.0810642
0.086910434 -0.22843033 1.0823079
0.087198712 -0.22621326 1.0858979
0.087049305 -0.22285597 1.0840373
0.087254517 -0.22040464 1.0865928
0.087112755 -0.21707472 1.0848274
0.087205417 -0.21433061 1.0859814
0.08708974 -0.21107526 1.0845408
0.087060049 -0.20803323 1.0841711
0.08655531 -0.20387432 1.0778855
0.085340023 -0.19810045 1.0627514
0.083181344 -0.19025177 1.035869
0.08201994 -0.18479732 1.0214059
0.081393346 -0.18060882 1.0136029
0.081229329 -0.17747374 1.0115603
0.080813617 -0.17380853 1.0063834
0.080723099 -0.17085998 1.0052562
0.080676548 -0.16800918 1.0046765
0.080725811 -0.16535781 1.0052899
0.080109671 -0.16136277 0.99761701
0.079536736 -0.15749535 0.99048221
0.078925632 -0.15359272 0.98287207
0.078861184 -0.15077697 0.98206943
0.078491412 -0.14739227 0.97746468
0.078424282 -0.14459077 0.97662866
0.078235984 -0.14157458 0.97428375
0.078345567 -0.13910013 0.9756484
0.07832405 -0.13638991 0.97538048
0.078505479 -0.13402764 0.97763979
0.078334153 -0.13106279 0.97550631
0.078390598 -0.12848295 0.97620922
0.078017987 -0.12521064 0.971569
0.077952079 -0.12244554 0.97074825
0.077656738 -0.11933237 0.96707034
0.07778281 -0.11687256 0.96864033
0.077669479 -0.11405258 0.96722901
0.077918805 -0.11176051 0.97033393
0.077831522 -0.1089801 0.96924692
0.077691048 -0.10613298 0.96749759
0.077358902 -0.10304015 0.96336132
0.077358507 -0.10040054 0.96335644
0.07705763 -0.097381234 0.95960957
0.076766424 -0.094394349 0.9559831
0.076503336 -0.091460936 0.95270681
0.076621741 -0.08898855 0.95418137
0.076632239 -0.086386442 0.95431209
0.076554082 -0.083686702 0.9533388
0.07606791 -0.080560185 0.94728446
0.075927183 -0.077820897 0.9455319
0.075619116 -0.0749254 0.94169551
0.075503983 -0.072235517 0.94026178
0.075076044 -0.069264896 0.93493259
0.075037681 -0.066669591 0.9344548
0.07471031 -0.063830003 0.93037808
0.074480884 -0.061093073 0.92752099
0.074171357 -0.058308832 0.92366636
0.074241795 -0.055831458 0.92454356
0.074099809 -0.053196773 0.92277539
0.074073516 -0.050650887 0.92244798
0.073738001 -0.0479059 0.91826975
0.073804826 -0.045431472 0.91910195
0.07344944 -0.042706985 0.91467625
0.073570222 -0.040267371 0.91618037
0.073262259 -0.037599482 0.91234529
0.073579535 -0.03525215 0.9162963
0.073426023 -0.032673683 0.91438466
0.073628083 -0.030251781 0.91690093
0.073560208 -0.027714394 0.91605568
0.073713288 -0.025257347 0.91796201
0.073635958 -0.022718765 0.91699898
0.073672056 -0.020216588 0.91744852
0.07350938 -0.017664181 0.91542268
0.073516592 -0.015157903 0.9155125
0.073182799 -0.012592455 0.91135573
0.073210187 -0.01009961 0.91169685
0.072953954 -0.0075754439 0.90850586
0.073299505 -0.0051107197 0.91280907
0.073105589 -0.0026032089 0.91039425
0.073169105 -0.00010931352 0.9111852
0.072905436 0.0023782426 0.9079017
0.072681695 0.0048504733 0.90511543
0.072191186 0.0072805341 0.89900708
0.071930766 0.009708182 0.89576399
0.071919575 0.012160202 0.89562464
0.071866021 0.014602849 0.89495772
0.071812518 0.017041853 0.8942914
0.071662605 0.019451043 0.89242458
0.071580067 0.021870585 0.8913967
0.071374953 0.024242865 0.88884234
0.071266726 0.026637362 0.88749456
0.071056992 0.028983073 0.88488275
0.070872478 0.03132562 0.88258499
0.070804447 0.033711039 0.88173777
0.071030371 0.0362418 0.88455123
0.071034685 0.038667344 0.88460499
0.07121297 0.041193809 0.88682514
0.071063891 0.043531913 0.88496864
0.071100667 0.045980036 0.88542664
0.070870943 0.04824923 0.88256586
0.070972942 0.050739907 0.88383603
0.070859507 0.053076178 0.88242346
0.070843115 0.055480704 0.88221931
0.07046371 0.057587437 0.87749451
0.070309006 0.059859589 0.87556797
0.070106141 0.062078536 0.87304169
0.070201635 0.064558022 0.87423092
0.070049472 0.066807821 0.87233597
0.070135303 0.069282331 0.8734048
0.070114665 0.07165391 0.87314785
0.070256583 0.074195735 0.87491512
0.070149995 0.076476343 0.87358785
0.069983594 0.078682408 0.87151557
0.0698222 0.080882929 0.8695057
0.069815367 0.083256766 0.86942065
0.06968461 0.08547812 0.86779231
0.069819912 0.088025987 0.86947727
0.069658503 0.090198874 0.86746716
0.069782384 0.092739902 0.86900985
0.069582321 0.094847813 0.86651844
0.069772474 0.097487301 0.86888647
0.069693282 0.099754237 0.86790031
0.069755383 0.10222282 0.86867368
0.069560923 0.10431091 0.86625201
0.069741346 0.10696068 0.86849886
0.069580354 0.1090875 0.866494
0.069554187 0.11141931 0.86616808
0.069112502 0.11306955 0.86066777
0.069136247 0.11546697 0.86096346
0.069098823 0.11776176 0.86049742
0.069213055 0.12031765 0.86192
0.069028817 0.12235228 0.85962564
0.069077671 0.12479545 0.86023396
0.069065996 0.12713054 0.86008859
0.069348663 0.13001667 0.86360866
0.06920559 0.13210937 0.86182702
0.069242373 0.13454179 0.86228508
0.068938836 0.13630384 0.85850507
0.069019377 0.13881767 0.85950804
0.06892626 0.14098179 0.85834843
0.069054253 0.14359938 0.85994238
0.068863176 0.14555129 0.8575629
0.068910308 0.14800178 0.85814983
0.068639889 0.14976262 0.85478222
0.06852527 0.15185028 0.85335487
0.068129972 0.15329856 0.84843218
0.068196416 0.15577458 0.84925961
0.068044253 0.15774833 0.84736466
0.068010762 0.15999088 0.84694767
0.067737378 0.1616586 0.84354311
0.067740522 0.16397709 0.84358233
0.067557588 0.16583897 0.84130418
0.06764181 0.1683533 0.84235299
0.067301534 0.16980238 0.83811551
0.067244902 0.17195354 0.83741027
0.066891178 0.17333104 0.83300531
0.066919647 0.17568776 0.83335984
0.066777781 0.17759342 0.83159316
0.066828482 0.18000811 0.83222455
0.066750728 0.18207586 0.83125621
0.066917636 0.18481404 0.8333348
0.066673398 0.18641405 0.83029324
0.066742785 0.18888497 0.83115733
0.066472977 0.19038911 0.82779735
0.066704184 0.19332694 0.83067662
0.066502482 0.19501108 0.82816482
0.066657916 0.19774091 0.83010048
0.06662634 0.19992019 0.82970726
0.066845693 0.20285881 0.83243883
0.066677675 0.20462361 0.83034647
0.066678062 0.20689951 0.83035129
0.066494137 0.20859726 0.82806087
0.066661343 0.21139593 0.83014309
0.06649448 0.21313524 0.82806516
0.066228114 0.21454082 0.8247481
0.066306978 0.21705836 0.8257302
0.066266641 0.21918698 0.82522786
0.089833491 -0.26685014 1.0818036
0.089431502 -0.26270574 1.0769627
0.089370929 -0.25957954 1.0762333
0.089061193 -0.2557418 1.0725033
0.088999882 -0.25262967 1.0717649
0.088704258 -0.24886423 1.068205
0.088734642 -0.24602216 1.0685709
0.08860191 -0.24273124 1.0669725
0.088894717 -0.24060082 1.0704986
0.089024991 -0.23801652 1.0720674
0.089489125 -0.23630522 1.0776566
0.089610681 -0.23367 1.0791204
0.090010531 -0.23174325 1.0839355
0.090093926 -0.22898582 1.0849398
0.09031152 -0.22655953 1.0875602
0.09023428 -0.22338897 1.08663
0.090393864 -0.22080199 1.0885518
0.090268716 -0.2175184 1.0870447
0.090370491 -0.21478237 1.0882703
0.090185806 -0.21136823 1.0860462
0.090215512 -0.20846169 1.086404
0.089671195 -0.20424573 1.0798491
0.088235125 -0.19806394 1.0625556
0.086106926 -0.19044609 1.0369271
0.084768079 -0.18468846 1.0208043
0.083991513 -0.18022567 1.0114526
0.083707638 -0.17685507 1.0080341
0.083366573 -0.17338426 1.0039269
0.083491489 -0.17088972 1.0054312
0.083340369 -0.16783106 1.0036113
0.083408587 -0.16521683 1.0044328
0.082614012 -0.16091752 0.99486428
0.082086727 -0.15718247 0.98851454
0.081577398 -0.15351599 0.98238105
0.08150769 -0.15069592 0.98154157
0.081211679 -0.14746952 0.97797698
0.081118412 -0.14462411 0.97685385
0.080989674 -0.14172275 0.97530347
0.080977835 -0.13903064 0.97516096
0.080905832 -0.13623798 0.97429389
0.080984265 -0.13369842 0.97523832
0.080897413 -0.13088627 0.9741925
0.08082924 -0.12810946 0.97337151
0.080505341 -0.12494026 0.96947104
0.080551215 -0.12235411 0.97002339
0.080366045 -0.11942162 0.96779352
0.080557153 -0.11704806 0.97009492
0.08039587 -0.1141615 0.9681527
0.080629051 -0.11183271 0.97096074
0.080453403 -0.10893497 0.96884555
0.080119416 -0.10583964 0.96482354
0.079569161 -0.1024878 0.95819724
0.079622865 -0.099930257 0.95884395
0.079513177 -0.097169496 0.95752305
0.079600595 -0.094650343 0.95857573
0.079413071 -0.091807567 0.95631754
0.079421796 -0.089197569 0.95642257
0.079254538 -0.086395159 0.95440841
0.078940071 -0.083448164 0.95062149
0.07857921 -0.080474421 0.94627595
0.078459412 -0.077763394 0.94483328
0.078275606 -0.074998945 0.9426198
0.078167446 -0.072316609 0.94131732
0.077737026 -0.069353908 0.9361341
0.077691801 -0.066750549 0.93558949
0.0771055 -0.063703142 0.92852902
0.076965168 -0.061048161 0.92683911
0.076686785 -0.058297493 0.92348671
0.076837212 -0.05587703 0.92529821
0.0765092 -0.0531145 0.92134821
0.076421879 -0.050532762 0.92029667
0.076158069 -0.047845904 0.91711974
0.076269761 -0.045399975 0.91846478
0.076047011 -0.042758629 0.91578233
0.07613045 -0.040294044 0.91678721
0.075820908 -0.037628919 0.91305959
0.075951599 -0.035188176 0.91463339
0.075797975 -0.032616466 0.91278344
0.076004192 -0.030197863 0.91526675
0.075899765 -0.02765248 0.91400921
0.076082923 -0.025209274 0.91621482
0.076033086 -0.02268447 0.91561472
0.076120146 -0.02019928 0.91666311
0.075915746 -0.01764062 0.91420168
0.075908259 -0.015134706 0.9141115
0.075581178 -0.012576108 0.91017264
0.075601205 -0.010085397 0.91041386
0.075371653 -0.007568303 0.90764946
0.075672068 -0.0051020873 0.91126722
0.075498894 -0.002599742 0.90918177
0.075595289 -0.00010921243 0.91034257
0.075409032 0.0023787611 0.90809965
0.075172499 0.0048512011 0.90525126
0.074552104 0.0072705988 0.89778024
0.074252076 0.0096908761 0.89416724
0.074162871 0.012125828 0.89309299
0.074127562 0.014565485 0.89266777
0.074085787 0.017001327 0.89216471
0.0739666 0.019414095 0.89072943
0.073946044 0.02184814 0.89048189
0.073780119 0.024233084 0.8884837
0.07365533 0.026621945 0.88698095
0.07339637 0.028949657 0.8838625
0.073254503 0.031310327 0.88215411
0.073173061 0.033689458 0.88117331
0.073285572 0.036158912 0.88252825
0.07321851 0.038541265 0.88172066
0.073397584 0.041056875 0.88387716
0.073410295 0.04348575 0.88403016
0.073488325 0.045956317 0.88496989
0.073189743 0.048184086 0.88137424
0.073255733 0.050644197 0.88216889
0.073189147 0.053012639 0.88136709
0.073200688 0.055435847 0.88150603
0.072861291 0.057582479 0.87741894
0.072786547 0.059924591 0.87651879
0.072637007 0.062197734 0.87471801
0.072806723 0.06474492 0.87676179
0.072587617 0.066944703 0.87412328
0.072604068 0.069355033 0.87432134
0.072455265 0.071603157 0.87252939
0.072652601 0.074194945 0.87490582
0.072609723 0.076546513 0.87438941
0.072462581 0.078781895 0.87261748
0.072238684 0.080921583 0.86992127
0.072164491 0.083219156 0.86902785
0.071994528 0.085398212 0.86698109
0.072150126 0.08796297 0.86885488
0.072063252 0.090234384 0.86780864
0.072192997 0.092778459 0.86937112
0.07205227 0.09497457 0.86767644
0.072107479 0.097426131 0.86834127
0.071920678 0.099546365 0.86609179
0.071844287 0.10181073 0.86517185
0.071609616 0.10384054 0.86234581
0.071798205 0.1064826 0.86461693
0.071626455 0.1085908 0.86254859
0.071829841 0.11126877 0.86499786
0.071528062 0.11316098 0.86136371
0.071531087 0.11552554 0.86140019
0.071448378 0.117749 0.86040413
0.071556278 0.12028743 0.86170357
0.071449541 0.12246508 0.8604182
0.07144738 0.1248184 0.86039215
0.071393073 0.12707874 0.85973817
0.071612373 0.12983155 0.86237907
0.071499579 0.13198578 0.86102074
0.071588106 0.13451086 0.86208683
0.07127481 0.1362735 0.85831404
0.071299829 0.13867348 0.85861528
0.071263313 0.14095341 0.85817558
0.071418442 0.1436163 0.8600437
0.071282029 0.14569353 0.85840094
0.071231075 0.14793925 0.85778731
0.070968434 0.149735 0.85462457
0.070854746 0.1518326 0.85325545
0.070461012 0.15331334 0.84851396
0.070501693 0.15572767 0.84900385
0.07035587 0.15772657 0.84724784
0.070427172 0.16020976 0.84810644
0.070311889 0.16226709 0.84671819
0.070181198 0.16428071 0.84514439
0.069901079 0.165931 0.84177107
0.069783017 0.16795285 0.84034932
0.069573089 0.16974278 0.8378213
0.069556765 0.17199759 0.83762473
0.069275059 0.17358637 0.83423239
0.069258928 0.17583075 0.83403814
0.069128022 0.1777789 0.83246166
0.069198191 0.18024217 0.83330667
0.069120772 0.18232077 0.83237439
0.069164596 0.18471809 0.83290213
0.068935439 0.18638022 0.83014256
0.069062941 0.18900329 0.83167797
0.068905868 0.19084661 0.82978648
0.069132671 0.19375542 0.83251768
0.068891726 0.19535284 0.82961619
0.068968534 0.19784588 0.83054107
0.068879649 0.1998632 0.82947069
0.06895642 0.20236079 0.83039522
0.068746649 0.20401311 0.82786912
0.068829045 0.20652826 0.82886136
0.068792798 0.20868894 0.82842481
0.069130942 0.21199533 0.83249688
0.068903767 0.21357177 0.82976115
0.068552941 0.21474589 0.82553643
0.068662383 0.21735384 0.82685429
0.068578452 0.21935052 0.82584357
0.092815585 -0.26690346 1.0820197
0.092359371 -0.262642 1.0767013
0.092256874 -0.25940418 1.0755063
0.091886751 -0.255429 1.0711915
0.091847755 -0.25238737 1.070737
0.091581613 -0.24873129 1.0676343
0.091747873 -0.24625279 1.0695726
0.091766298 -0.24337162 1.0697874
0.09217716 -0.24151748 1.0745771
0.092378505 -0.23909484 1.0769243
0.092845649 -0.2373388 1.0823702
0.092876084 -0.2344505 1.0827249
0.093173444 -0.23222558 1.0861915
0.093237624 -0.22940791 1.0869397
0.093425423 -0.22688635 1.089129
0.093346089 -0.22371258 1.0882041
0.093428753 -0.22092697 1.0891678
0.093357071 -0.21777602 1.0883322
0.093499064 -0.21512128 1.0899875
0.09327963 -0.21163744 1.0874294
0.093226261 -0.20853907 1.0868073
0.092563048 -0.20409945 1.0790757
0.091217391 -0.19821918 1.0633883
0.089173712 -0.19093034 1.0395637
0.087642625 -0.18485318 1.0217147
0.086676948 -0.18004829 1.010457
0.086169623 -0.17624255 1.0045428
0.085897408 -0.17294256 1.0013694
0.085966058 -0.17033538 1.0021697
0.085727558 -0.16712502 0.99938929
0.085601039 -0.16414464 0.99791437
0.084915459 -0.16011813 0.98992211
0.08452332 -0.15667938 0.98535067
0.084061712 -0.15313911 0.97996932
0.084163979 -0.15063757 0.98116148
0.083835892 -0.14737298 0.97733676
0.083812937 -0.14465599 0.9770692
0.083597176 -0.14161383 0.97455388
0.08368215 -0.13908532 0.97554451
0.083376102 -0.13591395 0.9719767
0.083361045 -0.1332272 0.97180116
0.083117448 -0.13018346 0.96896136
0.083279781 -0.1277781 0.97085381
0.083122268 -0.12488182 0.96901751
0.083266124 -0.12243877 0.97069454
0.083117455 -0.11956573 0.96896142
0.083195567 -0.11702117 0.96987206
0.083031788 -0.11413909 0.96796274
0.083088167 -0.1115631 0.96862
0.082924724 -0.10869537 0.96671462
0.082671784 -0.10572362 0.96376592
0.082102343 -0.10237338 0.95712751
0.082031228 -0.099664964 0.95629847
0.081907809 -0.096899219 0.95485967
0.082258619 -0.094687231 0.95894933
0.082259886 -0.092061639 0.95896411
0.082220815 -0.089392126 0.95850867
0.081909284 -0.086437568 0.95487684
0.081470005 -0.083372176 0.94975585
0.081072733 -0.080376506 0.94512463
0.080998853 -0.077716485 0.94426328
0.080846682 -0.074988566 0.94248933
0.080892354 -0.072447553 0.94302177
0.080471106 -0.069500364 0.93811095
0.080258645 -0.066753738 0.9356342
0.079570942 -0.06364058 0.92761713
0.079441123 -0.060999721 0.92610371
0.079103351 -0.058214121 0.92216605
0.079215795 -0.055767048 0.92347693
0.078770101 -0.052937686 0.91828114
0.078817554 -0.05045246 0.91883427
0.07857433 -0.047787428 0.91599888
0.078735381 -0.045370892 0.91787636
0.078533553 -0.042746544 0.91552347
0.078608058 -0.040276676 0.91639203
0.078433514 -0.037682403 0.9143573
0.078527197 -0.035219569 0.91544938
0.078378208 -0.032649666 0.91371256
0.078421138 -0.030163096 0.914213
0.078283794 -0.027610203 0.91261184
0.07846655 -0.02516876 0.91474235
0.078354448 -0.022630479 0.91343552
0.078542732 -0.020176524 0.91563046
0.078275204 -0.017608011 0.91251171
0.078320414 -0.015116946 0.91303879
0.07797993 -0.012560866 0.90906948
0.078003153 -0.010073504 0.90934026
0.077835992 -0.0075661526 0.90739155
0.078011155 -0.0050918204 0.90943348
0.077811994 -0.002593823 0.90711176
0.077945873 -0.00010901208 0.90867251
0.077769071 0.0023748626 0.90661132
0.077532351 0.0048437011 0.90385175
0.0767233 0.0072433865 0.89442003
0.076357603 0.0096474122 0.89015687
0.076157868 0.012054349 0.88782841
0.076252513 0.014504525 0.88893175
0.07630612 0.016951628 0.88955671
0.076289095 0.019384209 0.88935822
0.076387279 0.021848654 0.89050281
0.076352365 0.024277052 0.89009577
0.076179668 0.026655009 0.8880825
0.075809844 0.028946668 0.88377124
0.07562875 0.031292792 0.8816601
0.075566158 0.033680171 0.88093042
0.075586744 0.036103275 0.88117033
0.075526908 0.038486719 0.88047278
0.075733043 0.041010365 0.88287592
0.075854182 0.043498438 0.88428807
0.076000303 0.046009373 0.88599157
0.075754561 0.048279893 0.88312674
0.075761668 0.050703943 0.88320959
0.075652853 0.053047165 0.88194108
0.07560198 0.055425905 0.88134795
0.075347446 0.057645593 0.87838066
0.075299419 0.060013611 0.87782085
0.075216576 0.062349688 0.87685502
0.075226203 0.064760096 0.87696731
0.075089142 0.067040138 0.87536943
0.074984074 0.069341019 0.87414461
0.074815951 0.071574867 0.87218463
0.074838519 0.073986493 0.87244779
0.074802056 0.076339319 0.87202269
0.074772343 0.078696921 0.87167633
0.074603751 0.08090201 0.86971086
0.074513048 0.083183303 0.86865348
0.074395239 0.085427664 0.86728013
0.074500285 0.08792752 0.8685047
0.07440412 0.090190195 0.86738366
0.074396081 0.092556357 0.86728996
0.07423234 0.094723321 0.86538106
0.074287422 0.097166047 0.86602318
0.074126579 0.099322967 0.86414814
0.074149832 0.10172217 0.86441922
0.073985502 0.10385954 0.86250353
0.074177407 0.10649785 0.86474073
0.07397797 0.10857406 0.86241567
0.074158683 0.11120761 0.8645224
0.073773339 0.11298578 0.86003017
0.073717184 0.11525401 0.85937554
0.073565729 0.1173666 0.85760993
0.073762543 0.12003627 0.85990429
0.073674813 0.12224638 0.85888159
0.073782213 0.12478089 0.86013359
0.073668368 0.12694103 0.85880649
0.07388895 0.12968083 0.86137795
0.073732935 0.13176174 0.85955918
0.073890626 0.1344033 0.8613975
0.073691271 0.13639408 0.85907346
0.073708214 0.13877939 0.85927099
0.073588751 0.14090458 0.85787827
0.073638357 0.14335127 0.85845655
0.073572308 0.14557229 0.85768658
0.073530555 0.14783794 0.85719985
0.073248163 0.14960942 0.85390782
0.073133588 0.151711 0.85257214
0.072761931 0.15326375 0.84823948
0.072773226 0.15561162 0.84837115
0.07248351 0.15730692 0.84499365
0.07268361 0.16006242 0.8473264
0.072567284 0.16212377 0.84597033
0.072456434 0.16419007 0.84467804
0.072080635 0.16564044 0.8402971
0.071951739 0.16764209 0.83879447
0.071790919 0.1695601 0.83691967
0.071810342 0.17189929 0.83714604
0.071644127 0.17378946 0.83520842
0.071633361 0.17605101 0.83508289
0.071489751 0.17798115 0.83340871
0.071528606 0.18036222 0.83386171
0.071341701 0.18216927 0.83168274
0.071319051 0.18438908 0.83141869
0.071145952 0.18621367 0.82940078
0.071399488 0.18915747 0.83235645
0.071210302 0.19093043 0.83015096
0.071363211 0.19361946 0.8319335
0.071069747 0.19509293 0.82851243
0.071233504 0.19781737 0.83042145
0.071219504 0.20005296 0.83025825
0.071344621 0.20268285 0.83171684
0.071163967 0.20444231 0.82961076
0.071186483 0.2067804 0.82987326
0.071083121 0.20875029 0.82866836
0.071265161 0.21156079 0.83079046
0.071020737 0.21310329 0.82794106
0.070851214 0.21485732 0.82596481
0.070948251 0.21741739 0.82709605
0.070843413 0.21935858 0.82587391
0.095876507 -0.26717311 1.0831128
0.095277883 -0.26255634 1.0763502
0.095080212 -0.25906911 1.0741171
0.094608352 -0.25485551 1.0687865
0.094688825 -0.25214189 1.0696956
0.094537772 -0.24881397 1.0679892
0.094870217 -0.24675292 1.0717448
0.094925329 -0.24395856 1.0723674
0.095243119 -0.24182773 1.0759574
0.095454782 -0.23941106 1.0783486
0.095948264 -0.23767939 1.0839235
0.095993154 -0.23481984 1.0844306
0.096170865 -0.23227832 1.0864382
0.096150212 -0.22925282 1.0862049
0.096363649 -0.22677949 1.088616
0.096366875 -0.22380476 1.0886525
0.096410498 -0.2209224 1.0891453
0.096366726 -0.21783978 1.0886508
0.096488155 -0.2151282 1.0900226
0.096435875 -0.21202719 1.089432
0.096369036 -0.20889783 1.0886769
0.09583725 -0.20477916 1.0826694
0.094469503 -0.19893304 1.0672179
0.092260897 -0.19142692 1.0422674
0.090376712 -0.18472061 1.0209819
0.089182749 -0.17952028 1.0074937
0.088767007 -0.17593627 1.0027971
0.088572748 -0.17281014 1.0006026
0.088563167 -0.17005064 1.0004944
0.088057883 -0.16635525 0.99478614
0.087808825 -0.16316728 0.99197257
0.087353595 -0.15961796 0.98682982
0.087175749 -0.15659513 0.98482072
0.086659171 -0.15298529 0.97898495
0.086722985 -0.15041408 0.97970587
0.086344473 -0.14708543 0.97542983
0.086608246 -0.14485446 0.97840971
0.086338401 -0.14173114 0.97536123
0.086352825 -0.13908242 0.97552419
0.08585424 -0.13562241 0.96989173
0.085811175 -0.13289873 0.96940523
0.085631639 -0.12997058 0.96737695
0.085938506 -0.12777676 0.97084367
0.085794024 -0.12490681 0.96921146
0.085860759 -0.12234679 0.96996534
0.085516237 -0.11920934 0.96607327
0.085499264 -0.11653969 0.96588153
0.08547698 -0.113864 0.96562982
0.085528351 -0.11128554 0.96621013
0.085435331 -0.10852049 0.9651593
0.085295744 -0.10570349 0.9635824
0.084927507 -0.10261885 0.95942241
0.084718361 -0.099744305 0.95705974
0.084530413 -0.096907012 0.9549365
0.084714092 -0.094495885 0.95701146
0.084766537 -0.09193106 0.95760393
0.084595643 -0.089127697 0.95567334
0.084450908 -0.086361662 0.95403832
0.083985023 -0.083286099 0.94877523
0.08358378 -0.080301479 0.94424242
0.083477691 -0.077616125 0.94304389
0.083354548 -0.074922003 0.94165277
0.083552822 -0.072514459 0.94389266
0.083097167 -0.069547355 0.9387452
0.08282686 -0.066757828 0.93569154
0.082068928 -0.063607104 0.92712921
0.08203499 -0.061042011 0.92674577
0.081577167 -0.058176734 0.92157376
0.081523485 -0.0556155 0.92096734
0.080957882 -0.05272419 0.91457772
0.081116222 -0.05031696 0.91636652
0.080954239 -0.047711141 0.9145366
0.081203803 -0.045345165 0.9173559
0.08096493 -0.042706106 0.91465741
0.081041224 -0.040238317 0.9155193
0.080963343 -0.03769403 0.91463947
0.081102945 -0.035249084 0.91621655
0.080949232 -0.032677092 0.91448003
0.080908716 -0.030156804 0.91402233
0.080842771 -0.027630337 0.91327733
0.080914587 -0.025150774 0.91408867
0.080759957 -0.022603383 0.91234183
0.080782272 -0.020109612 0.9125939
0.080510855 -0.017550429 0.90952766
0.080628984 -0.015080908 0.91086221
0.080398642 -0.012549682 0.90826005
0.080520824 -0.010076828 0.90964031
0.080299385 -0.0075640441 0.90713871
0.08043021 -0.0050872471 0.90861666
0.080174409 -0.002589863 0.90572691
0.080242619 -0.00010875114 0.90649748
0.079910278 0.0023647293 0.90274298
0.079801373 0.004831166 0.90151268
0.079011455 0.007228558 0.89258903
0.078715563 0.0096375439 0.88924634
0.078482732 0.012037889 0.88661611
0.078661039 0.014499607 0.88863039
0.07866326 0.016934454 0.88865548
0.078605682 0.019354716 0.88800502
0.078701511 0.021813933 0.88908762
0.078691527 0.024246478 0.88897485
0.078649409 0.026667509 0.88849902
0.078315683 0.028978037 0.88472897
0.078203484 0.031356726 0.88346142
0.077992424 0.033685777 0.88107711
0.077959284 0.036084116 0.88070267
0.077773467 0.038405012 0.87860358
0.077983335 0.040922038 0.88097441
0.078111649 0.043406744 0.882424
0.078474656 0.046037067 0.88652486
0.078288533 0.048350718 0.88442224
0.078282684 0.050769765 0.88435614
0.078158356 0.053107947 0.88295162
