# .PCD v0.7 - Point Cloud Data file format
VERSION 0.7
FIELDS x y z
SIZE 4 4 4
TYPE F F F
COUNT 1 1 1
WIDTH 67
HEIGHT 1
VIEWPOINT 0 0 0 1 0 0 0
POINTS 67
DATA ascii
-0.011032281 0.08227478 0.85916609
-0.011184936 0.085799448 0.87105453
-0.0095138848 0.087612964 0.94185477
nan nan nan
nan nan nan
nan nan nan
-0.0075763706 0.095733508 1.029152
-0.0076470142 0.099471763 1.038748
-0.0076288758 0.10207468 1.0362842
-0.0075113545 0.10329736 1.0203204
-0.0047306945 0.08959575 1.0234506
-0.0048246467 0.094234519 1.0437765
-0.0048163077 0.096926078 1.0419724
-0.0047912509 0.099261425 1.0365516
-0.00476383 0.10151668 1.0306193
-0.0047392473 0.10380159 1.025301
-0.0019441689 0.090394475 1.0325744
-0.0019587129 0.093920559 1.0402989
-0.0019533655 0.096506216 1.0374588
-0.0019396638 0.098651432 1.0301816
-0.001922923 0.10059778 1.0212904
-0.0019180459 0.10313332 1.0187001
-0.0018984599 0.10484238 1.0082977
0.00086866372 0.085995123 1.0140533
0.0008768164 0.089606248 1.0235705
0.00088141742 0.092895195 1.0289416
0.00088301022 0.095886901 1.0308011
0.00087620452 0.097949944 1.0228562
0.00086951995 0.099983387 1.0150529
0.00086438592 0.10215731 1.0090595
0.0036230872 0.085440069 1.0075082
0.0036327729 0.088435888 1.0102016
0.0036446673 0.091501914 1.0135092
0.0036470576 0.094340213 1.0141739
0.0036338803 0.096767604 1.0105095
0.0036086517 0.098844811 1.0034939
0.0035896827 0.10105982 0.99821907
0.006281761 0.084083378 0.99151009
0.0062952014 0.086985305 0.99363154
0.0063270335 0.090160929 0.99865592
0.0063332361 0.092987776 0.99963492
0.0063202363 0.09552975 0.99758303
0.0062789572 0.097620815 0.99106759
0.0062366547 0.099659815 0.98439056
0.0088083372 0.082311362 0.97061449
0.0088810576 0.085671827 0.97862774
0.0089341803 0.088881232 0.98448151
0.0089155035 0.091386735 0.98242342
0.0089057079 0.09397468 0.98134398
0.0088759847 0.096340418 0.97806871
0.0088431397 0.098653384 0.97444952
0.011402185 0.084487848 0.96510315
0.011461055 0.087581567 0.97008598
0.011426324 0.089965627 0.96714628
0.011416763 0.092537597 0.96633703
0.011419567 0.09520822 0.96657443
0.013809112 0.083062656 0.94882321
0.013871753 0.086050496 0.95312726
0.013855441 0.088557296 0.95200652
0.013886661 0.091370709 0.95415163
0.013887865 0.093992718 0.95423436
0.016151775 0.081763685 0.93398505
0.016209859 0.084625535 0.93734384
0.016212218 0.087206028 0.93748015
0.016254164 0.090006508 0.93990582
0.018401343 0.080413163 0.91855806
0.018506154 0.083401859 0.92378998
