# .PCD v0.7 - Point Cloud Data file format
VERSION 0.7
FIELDS x y z
SIZE 4 4 4
TYPE F F F
COUNT 1 1 1
WIDTH 196
HEIGHT 1
VIEWPOINT 0 0 0 1 0 0 0
POINTS 196
DATA ascii
0.20168479 -0.050842121 0.7126137
0.20141928 -0.048825584 0.71167558
0.20239586 -0.047103249 0.7151261
0.20288658 -0.045253646 0.71686
0.20419639 -0.043569308 0.72148794
0.20626391 -0.042013954 0.72879314
0.20996636 -0.040735766 0.74187499
0.21240026 -0.039152071 0.75047469
0.20997988 -0.036673453 0.74192274
0.20553066 -0.033906981 0.72620231
0.20321381 -0.031557787 0.71801621
0.20164339 -0.029362136 0.71246743
0.2020883 -0.027470835 0.71403939
0.20173439 -0.025470069 0.71278894
0.20397548 -0.050926637 0.71379828
0.20418341 -0.049021136 0.71452594
0.20611462 -0.047508858 0.72128409
0.20844564 -0.046047874 0.72944129
0.21347827 -0.045113117 0.74705267
0.22000547 -0.044383373 0.76989412
0.22697742 -0.043613944 0.79429203
0.22883755 -0.041777603 0.8008014
0.22412008 -0.038767822 0.78429294
0.21410413 -0.034982763 0.74924284
0.20798856 -0.031989634 0.72784179
0.20450184 -0.029492894 0.71564025
0.20416112 -0.027486552 0.71444792
0.20347837 -0.025443973 0.71205866
0.20723328 -0.051248714 0.71831262
0.20886716 -0.049669471 0.72397596
0.21328329 -0.048694402 0.73928314
0.21952863 -0.048035726 0.76093078
0.22723244 -0.047563732 0.78763378
0.23398323 -0.046754993 0.81103337
0.23880792 -0.045451462 0.8277567
0.23996723 -0.043393496 0.83177513
0.23793547 -0.040766768 0.8247326
0.22849934 -0.036980301 0.79202509
0.21702006 -0.033061776 0.75223559
0.2098213 -0.029972721 0.72728318
0.2076336 -0.027688621 0.71970022
0.20565242 -0.025471643 0.71283299
0.21293662 -0.052163828 0.731139
0.21782213 -0.051311769 0.7479139
0.22475496 -0.050830819 0.77171844
0.231153 -0.050103534 0.79368675
0.2364375 -0.049024995 0.81183159
0.24045397 -0.047596041 0.82562256
0.24325173 -0.045861758 0.83522892
0.24462923 -0.043820433 0.83995873
0.24458434 -0.041511782 0.83980459
0.23975706 -0.038437266 0.82322961
0.22952406 -0.034637786 0.78809363
0.2181254 -0.030865867 0.74895519
0.21220718 -0.028032342 0.72863442
0.20829719 -0.025556546 0.71520907
0.22158138 -0.053775739 0.75373191
0.2279347 -0.053193606 0.77534336
0.23378712 -0.052380834 0.79525095
0.23719093 -0.050933197 0.80682939
0.24029753 -0.049361065 0.81739676
0.24266878 -0.047586832 0.82546282
0.24498433 -0.045758005 0.83333939
0.24627151 -0.043703526 0.83771789
0.24731031 -0.0415833 0.84125149
0.24584849 -0.039046552 0.83627898
0.24101405 -0.036032822 0.81983411
0.23086686 -0.032364424 0.78531742
0.21969128 -0.028750546 0.74730247
0.21226108 -0.025800204 0.7220279
0.22902012 -0.055067897 0.77184308
0.23356993 -0.054005463 0.78717685
0.23761186 -0.052746262 0.80079889
0.23974408 -0.051006146 0.80798495
0.24182189 -0.049215578 0.81498754
0.24337216 -0.047284145 0.82021224
0.2456322 -0.045455437 0.82782906
0.24704552 -0.043436121 0.83259219
0.24828272 -0.041361377 0.83676183
0.248124 -0.039044123 0.83622694
0.24661215 -0.036529366 0.83113164
0.24083883 -0.033450644 0.81167442
0.23086396 -0.029933754 0.77805716
0.21899287 -0.026372695 0.73804927
0.23330949 -0.055586077 0.77910596
0.23647265 -0.054176435 0.78966892
0.23951778 -0.052682951 0.79983771
0.24137279 -0.05088288 0.8060323
0.24284674 -0.048972018 0.81095433
0.2437793 -0.046929967 0.8140685
0.245869 -0.045083027 0.82104677
0.24703024 -0.043036103 0.82492459
0.248623 -0.041039169 0.83024341
0.24858408 -0.038758676 0.83011341
0.24864489 -0.036493536 0.83031648
0.2459337 -0.033845801 0.82126284
0.2406387 -0.030915715 0.80358088
0.22970755 -0.027409971 0.7670778
0.23302151 -0.055014193 0.77109033
0.2365534 -0.053703651 0.78277767
0.23995927 -0.052301601 0.79404801
0.24172628 -0.050495461 0.79989523
0.24297228 -0.048553169 0.80401838
0.24387918 -0.046523597 0.80701941
0.24548481 -0.044604536 0.81233257
0.24680108 -0.042606417 0.81668824
0.2484118 -0.040632598 0.82201827
0.2484422 -0.038385406 0.82211888
0.24890904 -0.036201138 0.82366365
0.24780844 -0.033794653 0.82002169
0.24604955 -0.031324308 0.81420135
0.23907872 -0.028269576 0.79113418
0.22993265 -0.05379726 0.75403357
0.23501223 -0.052874453 0.77069139
0.23975262 -0.051787104 0.78623688
0.24203803 -0.050106362 0.79373157
0.24324754 -0.04817149 0.79769796
0.24422304 -0.046170648 0.800897
0.2457258 -0.044247217 0.80582511
0.24706827 -0.042269364 0.81022757
0.24843746 -0.040271726 0.81471765
0.24828829 -0.038016997 0.81422848
0.24852028 -0.035819884 0.81498927
0.24823333 -0.033548474 0.81404823
0.24779949 -0.031263683 0.81262547
0.24433921 -0.028632045 0.801278
0.22790357 -0.052847747 0.74072498
0.23232588 -0.051804662 0.75509822
0.2389594 -0.051156193 0.7766583
0.24173741 -0.049598545 0.78568727
0.24360418 -0.047812581 0.7917546
0.24429218 -0.045772508 0.79399073
0.24596997 -0.043896824 0.79944378
0.24715178 -0.041907165 0.80328488
0.24848649 -0.03992103 0.80762291
0.24849938 -0.037710533 0.80766481
0.24851297 -0.035499908 0.80770898
0.24830653 -0.033259571 0.80703801
0.24848369 -0.031070869 0.80761379
0.24724907 -0.028715055 0.80360109
0.2280388 -0.052412439 0.73462361
0.231087 -0.051073667 0.74444336
0.23748535 -0.050391953 0.76505554
0.24198134 -0.049210437 0.77953929
0.24516878 -0.047695003 0.78980756
0.24534443 -0.045563977 0.79037344
0.24643481 -0.043591656 0.79388607
0.24674943 -0.041469712 0.79489964
0.24778317 -0.039456725 0.79822981
0.24790847 -0.037288852 0.79863346
0.24846415 -0.035179704 0.80042356
0.24797715 -0.03292232 0.79885471
0.24850623 -0.030799462 0.80055916
0.24889407 -0.028651003 0.80180854
0.22915372 -0.052207951 0.73175746
0.2305176 -0.050502129 0.73611271
0.23512471 -0.049454603 0.75082463
0.24045272 -0.048471801 0.7678386
0.24624801 -0.047485888 0.78634471
0.24696472 -0.045463666 0.78863341
0.24730144 -0.043362278 0.78970867
0.24647038 -0.041060448 0.78705478
0.24708758 -0.039001767 0.78902572
0.24740915 -0.036888205 0.79005259
0.24836592 -0.034858167 0.79310787
0.24776165 -0.032605957 0.79117823
0.24866495 -0.030549528 0.79406273
0.24882545 -0.028392537 0.79457527
0.23025475 -0.052003872 0.72889704
0.23055845 -0.050073046 0.72985846
0.23311287 -0.048606243 0.73794472
0.23757179 -0.047475733 0.75205994
0.2464308 -0.04710903 0.7801041
0.24950063 -0.045532189 0.78982204
0.2489666 -0.043275673 0.78813148
0.24733649 -0.040847406 0.7829712
0.24759088 -0.038742296 0.78377652
0.24770278 -0.036611706 0.78413069
0.24849859 -0.034574334 0.78664994
0.2476082 -0.032303177 0.7838313
0.24797308 -0.030200338 0.78498638
0.24457934 -0.027666008 0.77424312
0.23104151 -0.051732931 0.7250995
0.23100924 -0.049739603 0.72499824
0.23262741 -0.048087999 0.73007667
0.2352888 -0.046615258 0.73842919
0.24379548 -0.046204563 0.76512653
0.25045025 -0.045312535 0.78601182
0.2512652 -0.043299723 0.78856945
0.24972272 -0.040886916 0.78372854
0.24959546 -0.038720183 0.78332913
0.24924405 -0.036522787 0.78222626
0.24898358 -0.034343977 0.78140879
0.24757181 -0.032020744 0.77697814
0.24510327 -0.029594185 0.76923084
0.23719591 -0.026600141 0.74441445
