# .PCD v0.7 - Point Cloud Data file format
VERSION 0.7
FIELDS x y z
SIZE 4 4 4
TYPE F F F
COUNT 1 1 1
WIDTH 225
HEIGHT 1
VIEWPOINT 0 0 0 1 0 0 0
POINTS 225
DATA ascii
0.068744116 -0.10327042 0.75328696
0.068811797 -0.10130646 0.75402856
0.069945984 -0.10087656 0.76645684
0.07134445 -0.10075177 0.78178102
0.073590502 -0.10171454 0.80639291
0.075701341 -0.10235964 0.82952315
0.077252157 -0.10213757 0.84651673
0.077103607 -0.099626623 0.84488893
0.074884057 -0.094510809 0.82056749
nan nan nan
0.069349907 -0.083362602 0.75992513
0.067573152 -0.079198398 0.74045575
0.066821747 -0.076311819 0.73222196
0.066285528 -0.073709652 0.72634614
0.066642195 -0.072105765 0.73025447
0.071149573 -0.103769 0.75692379
0.072464474 -0.10357486 0.77091235
0.074796371 -0.10472804 0.79572022
0.077090502 -0.10569351 0.8201263
0.079421587 -0.10657486 0.84492552
0.081307381 -0.1067358 0.86498755
0.083334304 -0.10696796 0.88655096
0.084193252 -0.10561679 0.89568883
0.084179915 -0.10314674 0.89554691
nan nan nan
0.078430496 -0.09153039 0.83438182
0.072926387 -0.082981609 0.77582645
0.070110373 -0.077734038 0.74586833
0.068687819 -0.07415498 0.73073447
0.068547554 -0.072005816 0.72924227
0.074390247 -0.10542298 0.76898843
0.076392293 -0.1060969 0.78968406
0.078992508 -0.10747125 0.81656307
0.08106181 -0.10799103 0.83795387
0.082963653 -0.10817529 0.85761368
0.084697962 -0.10803811 0.87554157
0.086922914 -0.10841468 0.89854139
0.088429868 -0.10779003 0.91411912
0.089255624 -0.10626899 0.92265511
0.088283598 -0.10261164 0.91260713
0.086912632 -0.098556936 0.89843512
nan nan nan
0.075890422 -0.081759803 0.78449607
0.072112992 -0.075648099 0.74544793
0.070881672 -0.072349168 0.73271954
0.077801645 -0.10722116 0.78210485
0.079994999 -0.10804095 0.80415368
0.082456045 -0.10909411 0.82889348
0.084329344 -0.10925027 0.84772491
0.086088151 -0.10915809 0.86540538
0.087574102 -0.10863058 0.88034296
0.089726977 -0.10883015 0.90198487
0.091458537 -0.10841172 0.91939145
0.092636809 -0.10725732 0.93123609
0.092312627 -0.10433982 0.9279772
0.091757029 -0.10118498 0.92239207
0.089901134 -0.096662641 0.90373558
nan nan nan
0.077755682 -0.079321161 0.78164285
0.07408417 -0.073535554 0.74473476
0.081010647 -0.10865148 0.79253811
0.082953595 -0.10903417 0.81154627
0.085331187 -0.10987235 0.8348065
0.0870689 -0.10977633 0.85180682
0.088659182 -0.10940524 0.86736476
0.090021342 -0.10867353 0.88069099
0.091992497 -0.10858766 0.89997506
0.093816474 -0.10822634 0.91781926
0.095110014 -0.10716957 0.93047416
0.095273428 -0.10480032 0.93207282
0.095224902 -0.10219486 0.93159807
0.094334707 -0.098711289 0.92288917
0.092402503 -0.094213001 0.90398616
0.086339988 -0.085717745 0.84467578
0.078411497 -0.075744927 0.76711029
0.083576143 -0.10916661 0.79629558
0.085333824 -0.10923518 0.8130424
0.087819256 -0.11012459 0.83672303
0.089625724 -0.11005056 0.85393471
0.091265671 -0.10968211 0.86955976
0.092530631 -0.10878718 0.881612
0.094443202 -0.10857072 0.89983463
0.096297614 -0.10818905 0.91750306
0.097581089 -0.10708406 0.92973173
0.097933523 -0.10491465 0.93308961
0.098066069 -0.10249702 0.93435252
0.097722299 -0.099587068 0.93107712
0.096884675 -0.096204661 0.92309642
nan nan nan
nan nan nan
0.085932918 -0.10938983 0.79792386
0.087573111 -0.10925014 0.81315374
0.089795604 -0.10973863 0.83379054
0.091703184 -0.1097372 0.85150319
0.0933965 -0.10938779 0.86722636
0.094677143 -0.1084794 0.87911773
0.096655719 -0.10828777 0.89748961
0.098397076 -0.10773575 0.91365886
0.099992134 -0.1069387 0.92846966
0.10043738 -0.10486004 0.93260396
0.10070816 -0.10258102 0.93511826
0.10048819 -0.099800833 0.93307573
0.100253 -0.097017109 0.93089193
0.098663516 -0.092969216 0.91613287
nan nan nan
0.088149332 -0.10942772 0.79820025
0.089647658 -0.10906392 0.81176776
0.091771148 -0.10937085 0.83099616
0.0936758 -0.10931703 0.84824294
0.095461845 -0.10903327 0.86441576
0.096854493 -0.10822132 0.87702632
0.098823585 -0.10797009 0.89485663
0.10044488 -0.10724979 0.90953761
0.10224545 -0.10663604 0.92584193
0.10290492 -0.10477117 0.93181354
0.1033535 -0.10266408 0.93587542
0.1030426 -0.099799164 0.93306011
0.10307065 -0.097269557 0.9333142
0.10223594 -0.093945749 0.92575574
nan nan nan
0.090055674 -0.10908819 0.79572362
0.091621794 -0.10876754 0.80956173
0.093533821 -0.10877333 0.82645619
0.095358595 -0.10858719 0.84257972
0.097206935 -0.10833899 0.85891151
0.09873499 -0.10765209 0.87241322
0.10072628 -0.10738508 0.89000815
0.1021826 -0.10646428 0.90287608
0.10410514 -0.10594745 0.9198634
0.10497535 -0.10429206 0.92755246
0.10565959 -0.10241429 0.93359834
0.1055159 -0.09972094 0.93232876
0.10567307 -0.097311579 0.93371743
0.10527556 -0.094397277 0.93020517
0.1020309 -0.089018166 0.90153563
0.091939077 -0.10873757 0.7931661
0.093356431 -0.10820755 0.80539376
0.095255174 -0.10815714 0.82177436
0.097128473 -0.10798866 0.83793545
0.099073321 -0.10780951 0.85471386
0.1005987 -0.1070919 0.86787343
0.10236026 -0.10654802 0.88307053
0.10368412 -0.10547561 0.89449161
0.10547454 -0.10480423 0.90993768
0.10662325 -0.10342575 0.91984767
0.1077119 -0.10193614 0.92923963
0.10791954 -0.099582121 0.93103093
0.10832256 -0.097393952 0.93450779
0.10735892 -0.093990259 0.92619437
nan nan nan
0.094030969 -0.10864404 0.79248381
0.095309518 -0.10792079 0.80325931
0.096931636 -0.10751959 0.81693035
0.098702379 -0.10720491 0.83185399
0.10073811 -0.10709017 0.84901088
0.10217276 -0.10625634 0.86110204
0.10371333 -0.10546396 0.87408584
0.10480972 -0.10415901 0.88332611
0.1065148 -0.1033943 0.89769632
0.10781912 -0.10217109 0.90868896
0.10925815 -0.10101219 0.92081702
0.109802 -0.098979898 0.9254005
0.10992587 -0.096553594 0.92644447
nan nan nan
nan nan nan
0.096367545 -0.10883106 0.79384798
0.097786002 -0.10822624 0.80553281
0.098949581 -0.10728107 0.81511801
0.10024511 -0.10642345 0.82579023
0.10226422 -0.10625921 0.84242302
0.10355908 -0.10526765 0.85308975
0.10514783 -0.10450976 0.86617738
0.10610078 -0.10306256 0.87402755
0.10767251 -0.10215945 0.88697499
0.10894641 -0.10090955 0.89746904
0.11044247 -0.099802889 0.90979308
0.11086222 -0.097680382 0.91325086
0.1091368 -0.09369725 0.89903742
nan nan nan
0.090522103 -0.073630363 0.74569488
0.098881051 -0.10920522 0.79657722
0.10107325 -0.10939573 0.81423742
0.1016595 -0.10778674 0.81896019
0.10187687 -0.1057689 0.82071131
0.1033856 -0.10505367 0.83286554
0.10456796 -0.10394741 0.84239048
0.10647563 -0.10349397 0.85775852
0.10749088 -0.10210858 0.86593729
0.10896149 -0.1011009 0.87778437
0.10992667 -0.09957049 0.8855598
0.11129427 -0.09835311 0.89657706
0.11017404 -0.094931729 0.88755262
nan nan nan
0.093096286 -0.076107576 0.74997568
0.090569273 -0.072042942 0.72961825
0.099460192 -0.10747302 0.78394204
0.10369779 -0.10981293 0.81734264
0.10482302 -0.10874114 0.82621163
0.10424611 -0.10589175 0.82166451
0.10500103 -0.10439137 0.82761478
0.10561174 -0.10271812 0.83242834
0.10742269 -0.10215995 0.84670216
0.1084816 -0.10082461 0.85504848
0.11008488 -0.09993773 0.86768544
0.11094975 -0.098327227 0.87450242
0.11126787 -0.096206613 0.87700981
nan nan nan
0.096466683 -0.079243027 0.76034731
0.092697054 -0.074144907 0.73063523
0.091702886 -0.071369626 0.72279918
0.097948976 -0.10360301 0.75571299
0.10262768 -0.10638265 0.79181093
0.10630781 -0.10795052 0.82020456
0.10697864 -0.10637061 0.82538021
0.10727012 -0.10439318 0.82762909
0.10703142 -0.10189866 0.82578743
0.10787457 -0.10042135 0.83229268
0.10873403 -0.098923221 0.83892369
0.11044537 -0.098145783 0.85212731
0.11114 -0.096414007 0.85748667
nan nan nan
0.10000356 -0.082525797 0.7715649
0.095308281 -0.076636679 0.73533905
0.093827881 -0.073463157 0.72391719
0.093515009 -0.071241662 0.72150326
